ply
format ascii 1.0
element vertex 1306
property float x
property float y
property float z
end_header
2064.176129 -2262.261794 -411.225807
2064.176175 -2262.261817 -411.225453
2064.175451 -2262.26264 -411.224559
2064.17592 -2262.262207 -411.224583
2064.174432 -2262.263492 -411.224985
2064.175842 -2262.261841 -411.226991
2064.175214 -2262.262799 -411.224871
2064.176923 -2262.260983 -411.226284
2064.176557 -2262.26143 -411.225662
2064.175018 -2262.262846 -411.225602
2064.175867 -2262.261762 -411.227299
2064.176487 -2262.261272 -411.226888
2064.176328 -2262.26114 -411.228406
2064.177577 -2262.260244 -411.227067
2064.17553 -2262.262472 -411.225086
2064.176179 -2262.26202 -411.224316
2064.17649 -2262.261372 -411.226315
2064.177463 -2262.260498 -411.226243
2064.176003 -2262.261942 -411.225631
2064.176977 -2262.261216 -411.22473
2064.177495 -2262.260949 -411.223598
2064.17691 -2262.261269 -411.224777
2064.177125 -2262.261404 -411.222958
2064.176798 -2262.261217 -411.225624
2064.177731 -2262.260261 -411.226197
2064.1757 -2262.262053 -411.226538
2064.176307 -2262.261633 -411.225798
2064.176166 -2262.261678 -411.226261
2064.176888 -2262.261119 -411.225712
2064.177084 -2262.260612 -411.227521
2064.176529 -2262.260994 -411.228201
2064.176966 -2262.261031 -411.225804
2064.176915 -2262.261028 -411.22608
2064.178254 -2262.259522 -411.227642
2064.177916 -2262.259805 -411.227779
2064.177146 -2262.260683 -411.226816
2064.176361 -2262.261868 -411.224236
2064.177971 -2262.260173 -411.225481
2064.175921 -2262.261978 -411.22584
2064.176522 -2262.261574 -411.225045
2064.176786 -2262.261254 -411.225481
2064.176302 -2262.26175 -411.225184
2064.176045 -2262.262094 -411.224579
2064.176121 -2262.262002 -411.224708
2064.176347 -2262.262269 -411.224478
2064.175712 -2262.262707 -411.22526
2064.175653 -2262.262748 -411.225325
2064.176716 -2262.262212 -411.225318
2064.176353 -2262.262654 -411.224707
2064.176151 -2262.262701 -411.225463
2064.175635 -2262.262928 -411.226804
2064.175692 -2262.262923 -411.226545
2064.176799 -2262.261926 -411.226477
2064.175059 -2262.263336 -411.227451
2064.175473 -2262.263022 -411.227096
2064.175295 -2262.263117 -411.22747
2064.176478 -2262.262452 -411.225194
2064.176437 -2262.262407 -411.225644
2064.176327 -2262.26251 -411.225629
2064.175862 -2262.263018 -411.225171
2064.17675 -2262.26226 -411.224879
2064.176033 -2262.263002 -411.224401
2064.176443 -2262.262461 -411.22532
2064.176235 -2262.26277 -411.224662
2064.17574 -2262.263184 -411.224873
2064.176399 -2262.26271 -411.224167
2064.175164 -2262.263505 -411.22599
2064.175892 -2262.262749 -411.226501
2064.175524 -2262.263161 -411.226077
2064.176117 -2262.262645 -411.225945
2064.176987 -2262.262034 -411.224937
2064.176586 -2262.262312 -411.225418
2064.175157 -2262.263359 -411.224457
2064.17679 -2262.261624 -411.2258
2064.176279 -2262.262325 -411.224514
2064.176191 -2262.262433 -411.223731
2064.176123 -2262.26193 -411.225087
2064.176639 -2262.261453 -411.225123
2064.175944 -2262.262236 -411.224304
2064.176354 -2262.26205 -411.222643
2064.176097 -2262.261401 -411.225756
2064.175533 -2262.262031 -411.22512
2064.176028 -2262.261819 -411.223798
2064.175973 -2262.261759 -411.224406
2064.17676 -2262.260926 -411.22504
2064.177564 -2262.260526 -411.223205
2064.176967 -2262.260872 -411.224298
2064.175813 -2262.261874 -411.224574
2064.176202 -2262.260976 -411.227565
2064.174963 -2262.262532 -411.225226
2064.175519 -2262.262176 -411.224391
2064.176866 -2262.260653 -411.226009
2064.176994 -2262.260569 -411.225829
2064.176094 -2262.260906 -411.228493
2064.175896 -2262.261612 -411.225601
2064.176424 -2262.261232 -411.225046
2064.176516 -2262.260979 -411.225967
2064.17687 -2262.260854 -411.224883
2064.177003 -2262.260622 -411.225491
2064.176124 -2262.261567 -411.224707
2064.176907 -2262.260741 -411.22532
2064.176307 -2262.261346 -411.225001
2064.176536 -2262.260997 -411.225772
2064.175754 -2262.261424 -411.227352
2064.17581 -2262.261557 -411.226337
2064.177365 -2262.26041 -411.224838
2064.176504 -2262.261182 -411.224916
2064.177408 -2262.260643 -411.223343
2064.175708 -2262.261786 -411.225588
2064.176182 -2262.261145 -411.226732
2064.175424 -2262.262586 -411.224993
2064.175071 -2262.263334 -411.222645
2064.175182 -2262.262919 -411.224371
2064.175513 -2262.262411 -411.225506
2064.174521 -2262.263212 -411.226701
2064.176297 -2262.262331 -411.224387
2064.176642 -2262.262037 -411.224274
2064.174722 -2262.263719 -411.224661
2064.17415 -2262.264084 -411.22552
2064.175377 -2262.263114 -411.224695
2064.175449 -2262.26317 -411.224029
2064.175582 -2262.263131 -411.223578
2064.174718 -2262.264046 -411.225255
2064.175136 -2262.263944 -411.223718
2064.175958 -2262.263355 -411.222831
2064.175725 -2262.263553 -411.222912
2064.17536 -2262.26395 -411.222564
2064.17509 -2262.263625 -411.225702
2064.175025 -2262.264197 -411.225264
2064.176218 -2262.263198 -411.224771
2064.175725 -2262.263452 -411.225848
2064.176186 -2262.263303 -411.224354
2064.175106 -2262.264158 -411.225068
2064.174847 -2262.264483 -411.224584
2064.175005 -2262.264164 -411.225543
2064.175194 -2262.264084 -411.225036
2064.175009 -2262.26411 -411.225824
2064.175494 -2262.263917 -411.224446
2064.177343 -2262.262155 -411.224857
2064.176543 -2262.262872 -411.224935
2064.175599 -2262.263396 -411.224413
2064.17693 -2262.262485 -411.222742
2064.175902 -2262.263201 -411.223966
2064.176486 -2262.262562 -411.224547
2064.176416 -2262.262841 -411.22336
2064.176181 -2262.262305 -411.225113
2064.175348 -2262.263125 -411.224782
2064.176433 -2262.262567 -411.222405
2064.177318 -2262.262055 -411.220782
2064.177024 -2262.262219 -411.221358
2064.176023 -2262.262779 -411.2233
2064.175087 -2262.263421 -411.224468
2064.175714 -2262.26236 -411.224777
2064.176063 -2262.262397 -411.222821
2064.175919 -2262.262308 -411.224034
2064.175061 -2262.262821 -411.225519
2064.175547 -2262.262716 -411.223655
2064.175756 -2262.262235 -411.225256
2064.175457 -2262.262591 -411.224795
2064.177242 -2262.260984 -411.224679
2064.17576 -2262.262258 -411.225107
2064.175698 -2262.262712 -411.222922
2064.176177 -2262.262061 -411.224097
2064.176054 -2262.262282 -411.223502
2064.175519 -2262.262469 -411.225155
2064.176001 -2262.262276 -411.223799
2064.175334 -2262.262988 -411.223232
2064.175576 -2262.262805 -411.223021
2064.175828 -2262.262557 -411.223123
2064.175842 -2262.262295 -411.224491
2064.175671 -2262.262502 -411.224213
2064.175192 -2262.263058 -411.223557
2064.175268 -2262.262856 -411.224285
2064.174661 -2262.263107 -411.225956
2064.175329 -2262.262826 -411.224144
2064.175293 -2262.262663 -411.225222
2064.174549 -2262.263376 -411.225039
2064.175593 -2262.262211 -411.2262
2064.175241 -2262.262662 -411.22549
2064.175934 -2262.262133 -411.224923
2064.175521 -2262.262487 -411.225049
2064.174899 -2262.263254 -411.223948
2064.176419 -2262.26199 -411.223277
2064.176306 -2262.262391 -411.221631
2064.17533 -2262.262993 -411.223222
2064.175915 -2262.26252 -411.222885
2064.174483 -2262.263493 -411.224724
2064.175942 -2262.262356 -411.223655
2064.1755 -2262.263046 -411.222076
2064.175106 -2262.263334 -411.222473
2064.174477 -2262.263634 -411.223977
2064.175076 -2262.263433 -411.222074
2064.175326 -2262.262931 -411.223583
2064.175922 -2262.262394 -411.223546
2064.174438 -2262.26375 -411.223538
2064.174206 -2262.263966 -411.223516
2064.175241 -2262.263036 -411.223433
2064.174761 -2262.263288 -411.224458
2064.175282 -2262.26287 -411.224141
2064.174731 -2262.263346 -411.224901
2064.176411 -2262.262254 -411.224241
2064.175088 -2262.263339 -411.224913
2064.174479 -2262.26395 -411.22461
2064.175923 -2262.262654 -411.224488
2064.174751 -2262.26408 -411.222525
2064.175782 -2262.263153 -411.222453
2064.175879 -2262.262778 -411.224029
2064.176472 -2262.262309 -411.223631
2064.175895 -2262.263056 -411.22242
2064.175504 -2262.263503 -411.221923
2064.175116 -2262.263915 -411.221603
2064.176104 -2262.262837 -411.222576
2064.17625 -2262.262721 -411.222476
2064.176054 -2262.26297 -411.222096
2064.175517 -2262.263158 -411.22375
2064.175975 -2262.262802 -411.223414
2064.175029 -2262.263718 -411.223124
2064.176221 -2262.262704 -411.222717
2064.176226 -2262.262419 -411.224261
2064.176464 -2262.262334 -411.223536
2064.175165 -2262.263742 -411.222311
2064.176592 -2262.262434 -411.222339
2064.175761 -2262.26313 -411.222684
2064.175195 -2262.26362 -411.222829
2064.176619 -2262.262613 -411.221221
2064.175743 -2262.263411 -411.221229
2064.175302 -2262.263689 -411.221912
2064.175297 -2262.263357 -411.223767
2064.176332 -2262.262626 -411.222586
2064.177182 -2262.261988 -411.221833
2064.176027 -2262.262943 -411.222377
2064.176012 -2262.262812 -411.223173
2064.175216 -2262.263791 -411.221783
2064.174906 -2262.264001 -411.222182
2064.175578 -2262.263745 -411.220218
2064.175962 -2262.263011 -411.222325
2064.175237 -2262.263637 -411.222526
2064.174252 -2262.264423 -411.223753
2064.174838 -2262.264338 -411.223048
2064.17434 -2262.264741 -411.223333
2064.173575 -2262.265276 -411.224226
2064.174754 -2262.264763 -411.221131
2064.174903 -2262.264523 -411.221702
2064.174522 -2262.264811 -411.222032
2064.174462 -2262.264754 -411.22265
2064.175056 -2262.264299 -411.222167
2064.17408 -2262.265413 -411.220939
2064.175361 -2262.26383 -411.22322
2064.173871 -2262.265452 -411.221773
2064.175431 -2262.263871 -411.222641
2064.173646 -2262.265457 -411.22288
2064.174585 -2262.264845 -411.221528
2064.175206 -2262.264211 -411.221902
2064.175024 -2262.264435 -411.221581
2064.175113 -2262.264329 -411.22172
2064.174523 -2262.265092 -411.220477
2064.173363 -2262.265319 -411.222681
2064.174018 -2262.264718 -411.222697
2064.173995 -2262.26457 -411.223626
2064.174565 -2262.264422 -411.221578
2064.173709 -2262.265326 -411.220901
2064.17507 -2262.26413 -411.220648
2064.174471 -2262.26433 -411.221948
2064.175694 -2262.263081 -411.220914
2064.175066 -2262.263381 -411.222413
2064.174486 -2262.263915 -411.222387
2064.174417 -2262.264196 -411.221189
2064.173584 -2262.264596 -411.22079
2064.175747 -2262.262854 -411.219518
2064.175166 -2262.263007 -411.221592
2064.174862 -2262.263136 -411.222407
2064.175864 -2262.262283 -411.22207
2064.176113 -2262.262113 -411.221758
2064.174518 -2262.263899 -411.219936
2064.174627 -2262.263964 -411.219033
2064.175738 -2262.262808 -411.219814
2064.175966 -2262.262464 -411.220562
2064.174629 -2262.26366 -411.220697
2064.17482 -2262.263299 -411.221725
2064.175798 -2262.26226 -411.222526
2064.175 -2262.262969 -411.22263
2064.174112 -2262.264023 -411.221291
2064.175277 -2262.262561 -411.223488
2064.175896 -2262.262139 -411.222705
2064.175391 -2262.262823 -411.221475
2064.175063 -2262.263158 -411.221274
2064.175812 -2262.262285 -411.222324
2064.175672 -2262.262523 -411.221715
2064.1757 -2262.262684 -411.220685
2064.175536 -2262.262622 -411.221851
2064.175904 -2262.26261 -411.220067
2064.174313 -2262.264155 -411.219559
2064.174232 -2262.26425 -411.219441
2064.174855 -2262.263432 -411.220819
2064.175568 -2262.26271 -411.221212
2064.174547 -2262.263632 -411.221263
2064.174243 -2262.264125 -411.220682
2064.175054 -2262.2637 -411.220718
2064.17523 -2262.263354 -411.22174
2064.174931 -2262.263644 -411.221639
2064.174624 -2262.264414 -411.22133
2064.173882 -2262.265447 -411.219372
2064.174783 -2262.264324 -411.221023
2064.172599 -2262.266179 -411.221785
2064.175476 -2262.264157 -411.220841
2064.17445 -2262.265211 -411.220194
2064.173544 -2262.265976 -411.220529
2064.175056 -2262.2644 -411.221615
2064.174739 -2262.26485 -411.220728
2064.174663 -2262.265099 -411.219741
2064.173895 -2262.265552 -411.221107
2064.173841 -2262.265546 -411.221408
2064.174462 -2262.265191 -411.220245
2064.174555 -2262.265247 -411.219468
2064.173644 -2262.266349 -411.22036
2064.173732 -2262.266243 -411.220498
2064.173803 -2262.266419 -411.219173
2064.174385 -2262.265771 -411.219817
2064.173648 -2262.266556 -411.219194
2064.173536 -2262.266508 -411.220025
2064.17526 -2262.264596 -411.221887
2064.174123 -2262.265926 -411.220281
2064.174251 -2262.26583 -411.220164
2064.173086 -2262.266965 -411.219766
2064.173086 -2262.266965 -411.219766
2064.17327 -2262.266434 -411.221767
2064.174354 -2262.265577 -411.221038
2064.173421 -2262.266517 -411.220551
2064.174428 -2262.265884 -411.218378
2064.174424 -2262.265168 -411.220561
2064.174688 -2262.264982 -411.220258
2064.173914 -2262.265861 -411.219311
2064.173764 -2262.265329 -411.22061
2064.174977 -2262.264244 -411.220489
2064.175926 -2262.263618 -411.219169
2064.175448 -2262.264005 -411.219441
2064.175592 -2262.264005 -411.218109
2064.175461 -2262.263598 -411.219235
2064.174201 -2262.264208 -411.222204
2064.173512 -2262.265116 -411.220669
2064.173498 -2262.265196 -411.220301
2064.174553 -2262.264075 -411.221171
2064.175677 -2262.263363 -411.219442
2064.175521 -2262.263288 -411.220639
2064.174094 -2262.26463 -411.220423
2064.175169 -2262.263397 -411.221205
2064.174388 -2262.264187 -411.219008
2064.175107 -2262.26297 -411.222087
2064.174379 -2262.263699 -411.221733
2064.174853 -2262.263258 -411.221785
2064.175508 -2262.262876 -411.220595
2064.174663 -2262.263709 -411.220254
2064.174981 -2262.263697 -411.218722
2064.174632 -2262.26386 -411.219575
2064.174779 -2262.263742 -411.219491
2064.174737 -2262.263732 -411.219757
2064.174311 -2262.264157 -411.219556
2064.174404 -2262.26407 -411.219567
2064.175689 -2262.26244 -411.222088
2064.174044 -2262.264308 -411.220066
2064.174147 -2262.264095 -411.220722
2064.173215 -2262.264948 -411.220709
2064.173496 -2262.264676 -411.220792
2064.174606 -2262.263925 -411.219354
2064.173607 -2262.264698 -411.220118
2064.172875 -2262.265126 -411.22143
2064.174423 -2262.263704 -411.22149
2064.175112 -2262.26326 -411.220472
2064.174374 -2262.263895 -411.220685
2064.174161 -2262.264063 -411.220825
2064.17298 -2262.265371 -411.219561
2064.174606 -2262.264407 -411.219083
2064.174179 -2262.264999 -411.217966
2064.174406 -2262.264723 -411.218349
2064.17379 -2262.265276 -411.218394
2064.173954 -2262.265268 -411.217613
2064.174574 -2262.264645 -411.217928
2064.174372 -2262.26469 -411.218696
2064.173021 -2262.26574 -411.219703
2064.173952 -2262.264808 -411.220154
2064.174808 -2262.264585 -411.219465
2064.172451 -2262.266865 -411.218753
2064.173716 -2262.265452 -411.220174
2064.174043 -2262.265277 -411.219494
2064.173119 -2262.266072 -411.21976
2064.173789 -2262.265457 -411.219785
2064.172891 -2262.266026 -411.221156
2064.173617 -2262.265299 -411.221513
2064.173491 -2262.265851 -411.219105
2064.173198 -2262.266009 -411.219713
2064.172745 -2262.266431 -411.219664
2064.173937 -2262.265103 -411.220984
2064.174086 -2262.26519 -411.219758
2064.174611 -2262.264985 -411.218252
2064.174419 -2262.264883 -411.219776
2064.173574 -2262.265716 -411.219435
2064.174163 -2262.265253 -411.219026
2064.173439 -2262.265814 -411.21957
2064.173951 -2262.265635 -411.217988
2064.175322 -2262.264351 -411.21817
2064.173877 -2262.265519 -411.218996
2064.174399 -2262.265147 -411.218421
2064.17392 -2262.265593 -411.218372
2064.173579 -2262.265684 -411.219583
2064.173804 -2262.265477 -411.219595
2064.174402 -2262.265143 -411.218431
2064.174224 -2262.26523 -411.218848
2064.173369 -2262.265869 -411.21962
2064.173909 -2262.26555 -411.218666
2064.174898 -2262.264939 -411.21706
2064.174756 -2262.264716 -411.219002
2064.174095 -2262.265321 -411.218988
2064.17457 -2262.264945 -411.218681
2064.174494 -2262.265031 -411.218587
2064.174263 -2262.265249 -411.218546
2064.174674 -2262.264982 -411.217952
2064.17496 -2262.264629 -411.21846
2064.174115 -2262.26546 -411.218125
2064.17386 -2262.265846 -411.217282
2064.174186 -2262.265211 -411.219141
2064.173713 -2262.265587 -411.219448
2064.175281 -2262.26434 -411.218436
2064.173939 -2262.265711 -411.217629
2064.174206 -2262.26503 -411.220036
2064.17361 -2262.265716 -411.219253
2064.174857 -2262.264588 -411.219198
2064.17385 -2262.265643 -411.21845
2064.173319 -2262.265937 -411.219499
2064.173389 -2262.265918 -411.219252
2064.17406 -2262.265148 -411.22012
2064.174051 -2262.265163 -411.220085
2064.17417 -2262.265214 -411.219201
2064.174183 -2262.265235 -411.219022
2064.174072 -2262.265046 -411.220624
2064.174085 -2262.265362 -411.218817
2064.174019 -2262.265178 -411.22016
2064.174221 -2262.265133 -411.219396
2064.172576 -2262.266513 -411.220063
2064.173501 -2262.265543 -411.220755
2064.174189 -2262.265229 -411.219025
2064.174325 -2262.26546 -411.21707
2064.173181 -2262.266392 -411.217687
2064.173972 -2262.265758 -411.217204
2064.172707 -2262.266642 -411.218694
2064.173192 -2262.26612 -411.219131
2064.174075 -2262.26554 -411.217889
2064.173756 -2262.265425 -411.22012
2064.173896 -2262.265527 -411.218857
2064.173111 -2262.266086 -411.219722
2064.175061 -2262.264054 -411.218739
2064.174882 -2262.263874 -411.220626
2064.173077 -2262.265372 -411.221445
2064.172501 -2262.266005 -411.220852
2064.173288 -2262.265879 -411.217591
2064.173688 -2262.265588 -411.217191
2064.173752 -2262.265224 -411.21828
2064.173574 -2262.265148 -411.217803
2064.17401 -2262.264839 -411.217316
2064.17557 -2262.26327 -411.218117
2064.174289 -2262.264561 -411.217449
2064.175085 -2262.263837 -411.21743
2064.174226 -2262.264352 -411.218912
2064.173846 -2262.264948 -411.217539
2064.174374 -2262.264439 -411.217686
2064.17337 -2262.265329 -411.217835
2064.173037 -2262.265338 -411.219454
2064.172939 -2262.265754 -411.217662
2064.173558 -2262.265261 -411.217262
2064.174607 -2262.263855 -411.219733
2064.174802 -2262.263676 -411.219742
2064.174615 -2262.263906 -411.219413
2064.174228 -2262.264302 -411.219174
2064.174725 -2262.263706 -411.219961
2064.173682 -2262.26462 -411.220167
2064.173778 -2262.264638 -411.219585
2064.174896 -2262.263691 -411.219777
2064.175932 -2262.263317 -411.218419
2064.174922 -2262.264088 -411.21925
2064.175187 -2262.26394 -411.218731
2064.175292 -2262.264246 -411.21652
2064.173976 -2262.265448 -411.216515
2064.174432 -2262.264702 -411.218333
2064.174317 -2262.26466 -411.219137
2064.173607 -2262.265536 -411.217878
2064.173001 -2262.266655 -411.217146
2064.173911 -2262.265546 -411.218679
2064.17329 -2262.266438 -411.216889
2064.174274 -2262.2655 -411.217108
2064.173833 -2262.265337 -411.220219
2064.172952 -2262.266901 -411.218418
2064.173037 -2262.266798 -411.218553
2064.173305 -2262.266705 -411.217721
2064.173441 -2262.266036 -411.220719
2064.173445 -2262.266366 -411.218885
2064.173285 -2262.266762 -411.217511
2064.172642 -2262.267082 -411.218975
2064.173325 -2262.266314 -411.219775
2064.174084 -2262.265949 -411.217973
2064.172413 -2262.26789 -411.215681
2064.173152 -2262.266859 -411.217643
2064.174437 -2262.265627 -411.217971
2064.173035 -2262.266803 -411.218542
2064.174335 -2262.265821 -411.217413
2064.172924 -2262.266903 -411.218546
2064.172706 -2262.266824 -411.220073
2064.172874 -2262.267009 -411.218215
2064.172744 -2262.267293 -411.217302
2064.172206 -2262.268065 -411.218139
2064.172625 -2262.267358 -411.219922
2064.173234 -2262.267011 -411.218773
2064.174462 -2262.265872 -411.218873
2064.17289 -2262.267293 -411.218948
2064.173769 -2262.26649 -411.218953
2064.173449 -2262.266772 -411.219009
2064.174451 -2262.265966 -411.218415
2064.173126 -2262.266691 -411.218697
2064.173926 -2262.26598 -411.218597
2064.17436 -2262.265715 -411.217872
2064.173268 -2262.266727 -411.217192
2064.173678 -2262.265726 -411.218857
2064.174758 -2262.264712 -411.219012
2064.174071 -2262.265615 -411.2175
2064.173192 -2262.266002 -411.217403
2064.174051 -2262.265146 -411.2178
2064.174183 -2262.264924 -411.218359
2064.173706 -2262.265645 -411.216783
2064.173715 -2262.265313 -411.216187
2064.173833 -2262.264902 -411.217857
2064.173991 -2262.264538 -411.219068
2064.173979 -2262.26468 -411.218347
2064.17367 -2262.264859 -411.218913
2064.174402 -2262.264159 -411.219089
2064.174518 -2262.264323 -411.217605
2064.173009 -2262.265874 -411.216644
2064.17319 -2262.265244 -411.219204
2064.174795 -2262.263839 -411.218291
2064.173825 -2262.264313 -411.218761
2064.173946 -2262.264233 -411.21859
2064.173753 -2262.264472 -411.218244
2064.173599 -2262.26442 -411.219308
2064.173439 -2262.264582 -411.219218
2064.173286 -2262.265009 -411.217639
2064.174096 -2262.264187 -411.218094
2064.173976 -2262.264377 -411.217654
2064.174535 -2262.264155 -411.216066
2064.174737 -2262.263707 -411.217516
2064.175262 -2262.263 -411.218776
2064.174805 -2262.263424 -411.218733
2064.172903 -2262.26577 -411.21775
2064.174249 -2262.264572 -411.217587
2064.173986 -2262.264817 -411.217562
2064.173179 -2262.265321 -411.218836
2064.17364 -2262.264696 -411.219959
2064.174181 -2262.264928 -411.218349
2064.174003 -2262.265142 -411.218065
2064.173491 -2262.265497 -411.218679
2064.173932 -2262.264967 -411.219383
2064.173292 -2262.265616 -411.219025
2064.173627 -2262.265895 -411.218184
2064.174117 -2262.265497 -411.217913
2064.17399 -2262.265609 -411.217934
2064.17418 -2262.265641 -411.216802
2064.17402 -2262.265574 -411.217977
2064.174836 -2262.264877 -411.217713
2064.17381 -2262.265804 -411.217769
2064.172668 -2262.266793 -411.218057
2064.173542 -2262.265825 -411.218999
2064.173595 -2262.266495 -411.21742
2064.173686 -2262.26678 -411.215399
2064.173056 -2262.267209 -411.216198
2064.173864 -2262.266359 -411.216821
2064.172907 -2262.266825 -411.219062
2064.172661 -2262.267192 -411.218271
2064.173421 -2262.267222 -411.216673
2064.174054 -2262.266587 -411.216991
2064.173246 -2262.267301 -411.217118
2064.172976 -2262.267568 -411.217004
2064.173372 -2262.266904 -411.218668
2064.173144 -2262.267121 -411.218617
2064.17354 -2262.266837 -411.218193
2064.173247 -2262.266859 -411.21954
2064.1726 -2262.267651 -411.218431
2064.173851 -2262.266526 -411.218346
2064.17384 -2262.266664 -411.217635
2064.173493 -2262.266958 -411.217766
2064.175119 -2262.265744 -411.216278
2064.173685 -2262.266761 -411.217885
2064.174437 -2262.265464 -411.218868
2064.175676 -2262.264348 -411.218784
2064.173549 -2262.266408 -411.218134
2064.173636 -2262.266302 -411.218276
2064.172813 -2262.266841 -411.219447
2064.173714 -2262.266563 -411.216451
2064.173556 -2262.266432 -411.217965
2064.17435 -2262.26573 -411.217837
2064.17295 -2262.266586 -411.21778
2064.173171 -2262.265943 -411.220213
2064.174214 -2262.265199 -411.219062
2064.173978 -2262.265625 -411.21791
2064.173788 -2262.266092 -411.216289
2064.174354 -2262.265141 -411.218685
2064.175191 -2262.26445 -411.218284
2064.173733 -2262.265341 -411.218327
2064.173167 -2262.265834 -411.218455
2064.173933 -2262.265088 -411.218711
2064.173871 -2262.265364 -411.217506
2064.173372 -2262.26591 -411.217006
2064.173988 -2262.265133 -411.218189
2064.173721 -2262.265549 -411.217237
2064.17306 -2262.266153 -411.217232
2064.171999 -2262.266946 -411.218199
2064.173023 -2262.265899 -411.218813
2064.174146 -2262.265124 -411.217445
2064.174607 -2262.264607 -411.217972
2064.173414 -2262.265685 -411.218033
2064.17383 -2262.265115 -411.219082
2064.173882 -2262.265088 -411.218966
2064.173303 -2262.26573 -411.218344
2064.172833 -2262.266171 -411.218271
2064.174155 -2262.264783 -411.219271
2064.172947 -2262.265905 -411.219165
2064.172685 -2262.266512 -411.217138
2064.173299 -2262.266028 -411.216724
2064.174372 -2262.264984 -411.217077
2064.173171 -2262.265988 -411.217588
2064.174064 -2262.265002 -411.218529
2064.17419 -2262.264911 -411.218389
2064.173515 -2262.265674 -411.217586
2064.173142 -2262.266128 -411.21696
2064.173338 -2262.265797 -411.217796
2064.173235 -2262.266281 -411.21565
2064.173455 -2262.266213 -411.214923
2064.172689 -2262.266479 -411.217302
2064.17293 -2262.266119 -411.218072
2064.173049 -2262.266041 -411.217903
2064.171468 -2262.267561 -411.217481
2064.171938 -2262.26692 -411.218646
2064.173453 -2262.265403 -411.219387
2064.173766 -2262.265159 -411.219155
2064.172968 -2262.266201 -411.217432
2064.173439 -2262.265797 -411.217292
2064.172965 -2262.266046 -411.218301
2064.172373 -2262.266228 -411.220267
2064.173493 -2262.265094 -411.220887
2064.173415 -2262.265517 -411.218949
2064.17213 -2262.266616 -411.219354
2064.173046 -2262.266074 -411.217738
2064.173926 -2262.265282 -411.217681
2064.173345 -2262.265768 -411.217922
2064.174653 -2262.264792 -411.216724
2064.174128 -2262.265054 -411.217921
2064.174453 -2262.264597 -411.218799
2064.173885 -2262.265277 -411.217909
2064.173896 -2262.265078 -411.218951
2064.173485 -2262.265373 -411.219391
2064.173943 -2262.264949 -411.219424
2064.173625 -2262.265079 -411.220304
2064.172534 -2262.266022 -411.220595
2064.173671 -2262.265177 -411.219534
2064.172895 -2262.265991 -411.218955
2064.174432 -2262.264679 -411.218455
2064.173166 -2262.265668 -411.219367
2064.173392 -2262.265321 -411.220143
2064.174331 -2262.26468 -411.218959
2064.17502 -2262.264007 -411.219202
2064.174363 -2262.264731 -411.218518
2064.174168 -2262.264803 -411.219096
2064.174294 -2262.264699 -411.219035
2064.174564 -2262.264571 -411.218388
2064.174907 -2262.264218 -411.21861
2064.174077 -2262.265022 -411.218354
2064.173527 -2262.265559 -411.21816
2064.173904 -2262.265266 -411.217879
2064.174146 -2262.264909 -411.218627
2064.174452 -2262.265355 -411.217012
2064.173004 -2262.266924 -411.215651
2064.17297 -2262.266421 -411.218589
2064.173378 -2262.265892 -411.219447
2064.173115 -2262.266076 -411.219763
2064.173017 -2262.265906 -411.221183
2064.172773 -2262.266113 -411.221271
2064.172287 -2262.267499 -411.218467
2064.172613 -2262.2674 -411.217373
2064.173519 -2262.266355 -411.218573
2064.173034 -2262.266629 -411.2195
2064.173714 -2262.265997 -411.219563
2064.173308 -2262.266323 -411.219805
2064.172951 -2262.266841 -411.218751
2064.174078 -2262.266061 -411.217387
2064.173339 -2262.266632 -411.217952
2064.172785 -2262.26698 -411.218817
2064.17235 -2262.2674 -411.218689
2064.17235 -2262.2674 -411.218689
2064.173045 -2262.266944 -411.217714
2064.173855 -2262.266099 -411.218297
2064.173562 -2262.266386 -411.218186
2064.171656 -2262.267842 -411.219742
2064.172665 -2262.266749 -411.220695
2064.172479 -2262.266869 -411.220967
2064.17321 -2262.266172 -411.221131
2064.173024 -2262.266515 -411.220179
2064.174207 -2262.265195 -411.221501
2064.173406 -2262.26624 -411.21977
2064.173428 -2262.266418 -411.218681
2064.173352 -2262.265795 -411.220116
2064.172911 -2262.266419 -411.218898
2064.173784 -2262.265625 -411.218886
2064.173545 -2262.265844 -411.218877
2064.173044 -2262.266691 -411.216162
2064.174034 -2262.264837 -411.219584
2064.173831 -2262.265212 -411.218539
2064.172985 -2262.266509 -411.215653
2064.173155 -2262.266158 -411.216733
2064.173143 -2262.265639 -411.217267
2064.173317 -2262.265428 -411.217556
2064.173818 -2262.264876 -411.218077
2064.173231 -2262.265532 -411.217416
2064.172759 -2262.265778 -411.218429
2064.173343 -2262.264932 -411.220153
2064.173965 -2262.264236 -411.220858
2064.174147 -2262.264042 -411.221016
2064.172464 -2262.265426 -411.221846
2064.174101 -2262.264572 -411.218329
2064.173482 -2262.264789 -411.220245
2064.173785 -2262.26448 -411.220416
2064.174765 -2262.263691 -411.219842
2064.174265 -2262.264099 -411.220106
2064.174733 -2262.26386 -411.219072
2064.175096 -2262.263593 -411.218718
2064.174127 -2262.26437 -411.219306
2064.174618 -2262.263972 -411.219038
2064.174643 -2262.263814 -411.219776
2064.17391 -2262.264568 -411.219312
2064.174259 -2262.264512 -411.217865
2064.173244 -2262.265248 -411.218911
2064.173783 -2262.264591 -411.219821
2064.174109 -2262.264205 -411.220877
2064.173752 -2262.265325 -411.218316
2064.174151 -2262.264897 -411.218667
2064.172062 -2262.266715 -411.219151
2064.173614 -2262.265117 -411.220147
2064.172757 -2262.265853 -411.220404
2064.173864 -2262.265636 -411.218419
2064.17256 -2262.266751 -411.218834
2064.173314 -2262.266034 -411.218987
2064.174209 -2262.264768 -411.221463
2064.173856 -2262.265077 -411.221532
2064.173556 -2262.265237 -411.222157
2064.17317 -2262.266008 -411.219855
2064.172644 -2262.266738 -411.218477
2064.173368 -2262.266419 -411.21898
2064.174046 -2262.265635 -411.21989
2064.17335 -2262.266374 -411.219314
2064.173011 -2262.266986 -411.217654
2064.172219 -2262.267931 -411.216427
2064.173358 -2262.266468 -411.218761
2064.173714 -2262.265996 -411.219565
2064.172858 -2262.266979 -411.218462
2064.172452 -2262.267411 -411.21812
2064.172582 -2262.266871 -411.220438
2064.172122 -2262.26733 -411.220794
2064.174067 -2262.26633 -411.218341
2064.172607 -2262.267636 -411.218481
2064.173296 -2262.266734 -411.219987
2064.172846 -2262.267282 -411.21923
2064.172035 -2262.267966 -411.219537
2064.172809 -2262.267102 -411.220405
2064.17261 -2262.267477 -411.219342
2064.173513 -2262.266628 -411.219478
2064.174109 -2262.266038 -411.219734
2064.174074 -2262.266346 -411.218214
2064.174183 -2262.265993 -411.219039
2064.174113 -2262.265751 -411.218916
2064.173072 -2262.266518 -411.21992
2064.174327 -2262.265291 -411.220372
2064.173798 -2262.266052 -411.21827
2064.173431 -2262.265938 -411.218928
2064.172392 -2262.266649 -411.220234
2064.171726 -2262.26733 -411.21983
2064.172597 -2262.266374 -411.220716
2064.17366 -2262.265974 -411.217588
2064.173837 -2262.265486 -411.219377
2064.17407 -2262.265172 -411.219938
2064.173342 -2262.265767 -411.22032
2064.172529 -2262.266437 -411.218334
2064.17277 -2262.26608 -411.219093
2064.173594 -2262.264965 -411.221088
2064.173633 -2262.264979 -411.220811
2064.174304 -2262.264541 -411.21986
2064.173409 -2262.265445 -411.218805
2064.173929 -2262.264246 -411.220985
2064.174061 -2262.264475 -411.219061
2064.172853 -2262.265154 -411.22139
2064.172816 -2262.265397 -411.220243
2064.173942 -2262.264555 -411.21922
2064.173731 -2262.26475 -411.219207
2064.173548 -2262.264875 -411.219435
2064.173544 -2262.265144 -411.217978
2064.172662 -2262.265754 -411.219045
2064.172422 -2262.265742 -411.220316
2064.173491 -2262.264846 -411.21988
2064.173376 -2262.265312 -411.217896
2064.173527 -2262.264935 -411.219212
2064.172465 -2262.265522 -411.221314
2064.172898 -2262.265123 -411.221337
2064.172737 -2262.265194 -411.221758
2064.172271 -2262.265802 -411.221313
2064.173255 -2262.265447 -411.220142
2064.174071 -2262.264918 -411.218949
2064.173184 -2262.265406 -411.220721
2064.173626 -2262.264991 -411.220784
2064.173855 -2262.26476 -411.220908
2064.172918 -2262.265656 -411.220682
2064.172215 -2262.266686 -411.218539
2064.172345 -2262.266398 -411.219475
2064.173665 -2262.265181 -411.219542
2064.173776 -2262.265215 -411.218801
2064.173522 -2262.265241 -411.219932
2064.172638 -2262.265966 -411.220378
2064.171954 -2262.266882 -411.21934
2064.172854 -2262.266204 -411.220362
2064.172822 -2262.266572 -411.218503
2064.173378 -2262.265895 -411.219439
2064.172787 -2262.266413 -411.219554
2064.172864 -2262.266279 -411.219903
2064.172474 -2262.2665 -411.220642
2064.172447 -2262.26701 -411.218538
2064.172818 -2262.266829 -411.219483
2064.172645 -2262.266666 -411.221246
2064.173633 -2262.26573 -411.22144
2064.172936 -2262.266452 -411.220964
2064.17253 -2262.266778 -411.22121
2064.173971 -2262.265617 -411.220365
2064.173937 -2262.26546 -411.2214
2064.173491 -2262.266273 -411.219167
2064.173557 -2262.266131 -411.219616
2064.173507 -2262.266169 -411.219657
2064.173648 -2262.266384 -411.217766
2064.173444 -2262.266232 -411.219623
2064.173713 -2262.266037 -411.219346
2064.172988 -2262.266755 -411.21904
2064.173161 -2262.266411 -411.220065
2064.173698 -2262.26592 -411.220066
2064.173164 -2262.266375 -411.220244
2064.173649 -2262.265411 -411.223114
2064.174007 -2262.265444 -411.221133
2064.173245 -2262.266171 -411.22096
2064.173244 -2262.265844 -411.222768
2064.173653 -2262.265871 -411.220561
2064.17332 -2262.266481 -411.218882
2064.173401 -2262.266246 -411.219764
2064.173749 -2262.265579 -411.221122
2064.1736 -2262.265315 -411.221512
2064.173363 -2262.265803 -411.220016
2064.174991 -2262.263981 -411.221866
2064.173886 -2262.265396 -411.219626
2064.174797 -2262.264605 -411.219408
2064.174936 -2262.264563 -411.218945
2064.173863 -2262.265396 -411.219749
2064.174285 -2262.265404 -411.217581
2064.173524 -2262.265984 -411.218215
2064.175031 -2262.264697 -411.217727
2064.174038 -2262.265258 -411.219625
2064.173237 -2262.26597 -411.219726
2064.173934 -2262.265246 -411.220212
2064.17284 -2262.265847 -411.222399
2064.17263 -2262.266369 -411.220581
2064.172509 -2262.266453 -411.220726
2064.17271 -2262.266205 -411.221084
2064.173493 -2262.265375 -411.221716
2064.173676 -2262.265049 -411.222592
2064.173882 -2262.265001 -411.221824
2064.17426 -2262.265117 -411.219285
2064.174132 -2262.26525 -411.219198
2064.173829 -2262.265412 -411.219827
2064.172994 -2262.266222 -411.219561
2064.172728 -2262.266252 -411.220731
2064.173222 -2262.26585 -411.220468
2064.173042 -2262.266255 -411.219143
2064.173821 -2262.265321 -411.220367
2064.172883 -2262.266321 -411.219572
2064.172705 -2262.266675 -411.218523
2064.173631 -2262.26548 -411.22045
2064.17254 -2262.26634 -411.221196
2064.172926 -2262.266142 -411.220344
2064.173067 -2262.266069 -411.220038
2064.173282 -2262.26552 -411.221977
2064.172195 -2262.266785 -411.220476
2064.172468 -2262.266267 -411.221956
2064.17223 -2262.266618 -411.221221
2064.172833 -2262.266009 -411.221542
2064.173315 -2262.265782 -411.22037
2064.172529 -2262.266283 -411.221564
2064.172301 -2262.266684 -411.2205
2064.174278 -2262.265136 -411.219094
2064.174122 -2262.265479 -411.217991
2064.173614 -2262.265522 -411.219747
2064.172503 -2262.266034 -411.220683
2064.173508 -2262.26507 -411.220942
2064.173653 -2262.265058 -411.220282
2064.17287 -2262.266022 -411.218906
2064.173003 -2262.265822 -411.219343
2064.173846 -2262.265541 -411.216656
2064.1739 -2262.26527 -411.217873
2064.173108 -2262.26593 -411.218216
2064.173943 -2262.264914 -411.219619
2064.172778 -2262.265929 -411.21988
2064.173477 -2262.265376 -411.219415
2064.1747 -2262.264191 -411.219799
2064.174429 -2262.26456 -411.219123
2064.173393 -2262.265291 -411.220303
2064.172976 -2262.265232 -411.222722
2064.173474 -2262.265041 -411.221271
2064.173608 -2262.264914 -411.221299
2064.174372 -2262.26425 -411.221118
2064.173982 -2262.264618 -411.22105
2064.174477 -2262.264225 -411.220729
2064.1747 -2262.263879 -411.221507
2064.175008 -2262.263687 -411.221022
2064.174992 -2262.263941 -411.219705
2064.174449 -2262.264288 -411.220519
2064.174691 -2262.264211 -411.219732
2064.172833 -2262.265902 -411.219755
2064.174005 -2262.264876 -411.219516
2064.173755 -2262.264742 -411.221507
2064.173903 -2262.26497 -411.21951
2064.174366 -2262.264549 -411.221881
2064.174681 -2262.264368 -411.221294
2064.173862 -2262.265098 -411.221385
2064.17445 -2262.264448 -411.222017
2064.172547 -2262.266318 -411.22128
2064.172759 -2262.265914 -411.222438
2064.174884 -2262.264325 -411.220514
2064.173817 -2262.26561 -411.221173
2064.172999 -2262.266673 -411.219434
2064.173365 -2262.266226 -411.220055
2064.173124 -2262.266514 -411.219681
2064.173163 -2262.266734 -411.21827
2064.173493 -2262.26613 -411.219942
2064.173821 -2262.2656 -411.22121
2064.174295 -2262.265557 -411.21907
2064.173519 -2262.266282 -411.218978
2064.173004 -2262.266832 -411.218532
2064.173666 -2262.265997 -411.219807
2064.173256 -2262.26641 -411.219589
2064.17259 -2262.266645 -411.221643
2064.172833 -2262.266547 -411.22096
2064.172736 -2262.266611 -411.221096
2064.172073 -2262.267202 -411.221175
2064.172921 -2262.266328 -411.22172
2064.173568 -2262.266007 -411.220244
2064.173041 -2262.266386 -411.220802
2064.172498 -2262.266724 -411.221669
2064.172625 -2262.266653 -411.221421
2064.173116 -2262.266125 -411.221866
2064.172088 -2262.266767 -411.223493
2064.173489 -2262.265666 -411.222519
2064.17354 -2262.265835 -411.22133
2064.17345 -2262.266155 -411.220019
2064.173096 -2262.266115 -411.222019
2064.173075 -2262.265999 -411.222761
2064.173882 -2262.265362 -411.222218
2064.173693 -2262.266054 -411.219355
2064.174107 -2262.26504 -411.220483
2064.173317 -2262.265591 -411.221415
2064.174205 -2262.264912 -411.220689
2064.174006 -2262.265127 -411.220508
2064.173478 -2262.265507 -411.221063
2064.173887 -2262.264894 -411.221838
2064.173919 -2262.264545 -411.22177
2064.173936 -2262.264517 -411.221838
2064.173595 -2262.264564 -411.223291
2064.173921 -2262.264736 -411.220711
2064.173963 -2262.264691 -411.220744
2064.174589 -2262.263893 -411.221989
2064.172917 -2262.264955 -411.222161
2064.17412 -2262.263935 -411.221738
2064.174436 -2262.263864 -411.220546
2064.174312 -2262.26391 -411.220907
2064.174639 -2262.263711 -411.220366
2064.173408 -2262.264567 -411.221284
2064.17463 -2262.263261 -411.220507
2064.174423 -2262.263411 -411.220724
2064.174472 -2262.263193 -411.221676
2064.174402 -2262.263238 -411.22178
2064.173844 -2262.26381 -411.221435
2064.174382 -2262.263272 -411.221696
2064.174709 -2262.263236 -411.220246
2064.17454 -2262.263486 -411.219721
2064.173342 -2262.264618 -411.219507
2064.172667 -2262.264797 -411.221911
2064.172867 -2262.264727 -411.221842
2064.172457 -2262.265755 -411.22007
2064.17349 -2262.264788 -411.220205
2064.173146 -2262.264874 -411.22146
2064.173617 -2262.264249 -411.222537
2064.174507 -2262.263313 -411.223768
2064.174642 -2262.263959 -411.221363
2064.173111 -2262.265183 -411.222313
2064.174029 -2262.264143 -411.223429
2064.174889 -2262.263487 -411.222716
2064.17395 -2262.264345 -411.223263
2064.174364 -2262.264437 -411.222506
2064.174971 -2262.264222 -411.220639
2064.173115 -2262.265842 -411.221048
2064.173811 -2262.26493 -411.222566
2064.173371 -2262.26535 -411.222464
2064.174008 -2262.264555 -411.22364
2064.174118 -2262.265344 -411.221128
2064.173494 -2262.266061 -411.220319
2064.172246 -2262.267057 -411.2211
2064.171842 -2262.267347 -411.221533
2064.173405 -2262.265912 -411.221584
2064.172812 -2262.266429 -411.221713
2064.172088 -2262.266872 -411.222911
2064.172035 -2262.267142 -411.221692
2064.173054 -2262.265929 -411.223251
2064.172775 -2262.266268 -411.222783
2064.172588 -2262.266647 -411.221637
2064.172543 -2262.266461 -411.222889
2064.172753 -2262.266566 -411.221259
2064.173474 -2262.26595 -411.221026
2064.173027 -2262.26628 -411.221453
2064.174052 -2262.265589 -411.22011
2064.17368 -2262.265905 -411.220244
2064.173298 -2262.266233 -411.22035
2064.172911 -2262.266781 -411.219279
2064.172804 -2262.266442 -411.221683
2064.173974 -2262.265279 -411.222206
2064.1736 -2262.265739 -411.221556
2064.174205 -2262.265411 -411.220324
2064.173205 -2262.266156 -411.22124
2064.172776 -2262.266412 -411.221989
2064.172732 -2262.266365 -411.22247
2064.172976 -2262.266057 -411.222939
2064.173702 -2262.265459 -411.222583
2064.173506 -2262.265087 -411.225616
2064.174032 -2262.264666 -411.225291
2064.174828 -2262.264301 -411.223303
2064.173812 -2262.265185 -411.223542
2064.17408 -2262.264817 -411.224216
2064.173802 -2262.264903 -411.222762
2064.173008 -2262.265535 -411.22327
2064.174224 -2262.264516 -411.222771
2064.173884 -2262.265108 -411.221226
2064.173607 -2262.265508 -411.220414
2064.173985 -2262.264995 -411.221338
2064.174523 -2262.264044 -411.221495
2064.174058 -2262.264058 -411.223751
2064.172721 -2262.265423 -411.222952
2064.172682 -2262.265347 -411.223563
2064.17348 -2262.264641 -411.223445
2064.174368 -2262.263942 -411.222831
2064.172618 -2262.265297 -411.224161
2064.17494 -2262.263363 -411.223146
2064.173557 -2262.264663 -411.222937
2064.173649 -2262.264612 -411.222756
2064.173124 -2262.264811 -411.224298
2064.173409 -2262.264887 -411.222448
2064.173943 -2262.264105 -411.224067
2064.173738 -2262.264255 -411.224269
2064.173203 -2262.26504 -411.222641
2064.173732 -2262.264368 -411.22368
2064.173255 -2262.265065 -411.22224
2064.173684 -2262.26453 -411.223029
2064.172538 -2262.26565 -411.222621
2064.172918 -2262.265471 -411.221696
2064.173466 -2262.26505 -411.221262
2064.174318 -2262.2643 -411.221115
2064.173316 -2262.264903 -411.222828
2064.174 -2262.264128 -411.223655
2064.171528 -2262.266702 -411.221898
2064.172082 -2262.266207 -411.221848
2064.172549 -2262.265566 -411.22303
2064.172674 -2262.265354 -411.223567
2064.172957 -2262.264897 -411.224656
2064.17288 -2262.265587 -411.22363
2064.173003 -2262.265476 -411.223622
2064.173325 -2262.265287 -411.223045
2064.172607 -2262.266075 -411.222311
2064.172499 -2262.265915 -411.223737
2064.173475 -2262.265374 -411.221817
2064.174127 -2262.264784 -411.221788
2064.172445 -2262.266093 -411.22303
2064.173411 -2262.265216 -411.223003
2064.173173 -2262.265199 -411.224289
2064.172968 -2262.265781 -411.222119
2064.173567 -2262.265255 -411.222003
2064.174334 -2262.264526 -411.222166
2064.174253 -2262.264658 -411.221848
2064.173631 -2262.265265 -411.221631
2064.172925 -2262.265664 -411.222977
2064.173396 -2262.265093 -411.223755
2064.172935 -2262.265793 -411.222216
2064.173288 -2262.265248 -411.223446
2064.174052 -2262.264835 -411.221882
2064.173301 -2262.265168 -411.223821
2064.172443 -2262.266014 -411.223476
2064.17345 -2262.264845 -411.224848
2064.17414 -2262.264325 -411.224243
2064.172466 -2262.265805 -411.224508
2064.173623 -2262.264608 -411.225286
2064.174431 -2262.26421 -411.223419
2064.174115 -2262.264181 -411.225164
2064.174113 -2262.264185 -411.225155
2064.17343 -2262.264973 -411.224246
2064.174328 -2262.264233 -411.223807
2064.174039 -2262.264391 -411.224391
2064.174147 -2262.264383 -411.223892
2064.174559 -2262.264143 -411.223144
2064.172336 -2262.266291 -411.222486
2064.173411 -2262.265147 -411.223384
2064.173991 -2262.264274 -411.225274
2064.172566 -2262.265777 -411.224156
2064.172643 -2262.265907 -411.223056
2064.171647 -2262.266861 -411.222809
2064.173299 -2262.265171 -411.223813
2064.173022 -2262.265507 -411.223355
2064.172607 -2262.265525 -411.225342
2064.171934 -2262.265971 -411.226265
2064.173241 -2262.265087 -411.224566
2064.173385 -2262.264949 -411.225144
2064.173546 -2262.265132 -411.225167
2064.172334 -2262.266549 -411.223454
2064.173668 -2262.265024 -411.22515
2064.172258 -2262.266231 -411.225585
2064.173119 -2262.26578 -411.223741
2064.172297 -2262.266502 -411.223902
2064.173265 -2262.265473 -411.224697
2064.173465 -2262.26523 -411.225035
2064.172623 -2262.26611 -411.224421
2064.173111 -2262.265717 -411.224127
2064.172754 -2262.266151 -411.223539
2064.174058 -2262.265149 -411.222503
2064.173772 -2262.265133 -411.224024
2064.171924 -2262.266956 -411.223271
2064.171769 -2262.266932 -411.224183
2064.172431 -2262.266432 -411.223614
2064.171744 -2262.26668 -411.225694
2064.172075 -2262.266542 -411.224791
2064.171616 -2262.267066 -411.224217
2064.173293 -2262.265413 -411.224892
2064.172089 -2262.266433 -411.225318
2064.173379 -2262.265451 -411.224254
2064.172067 -2262.266512 -411.224997
2064.1717 -2262.266877 -411.224833
2064.173149 -2262.265636 -411.224384
2064.171769 -2262.267155 -411.222957
2064.172038 -2262.26645 -411.223106
2064.172334 -2262.265763 -411.225404
2064.172942 -2262.265137 -411.225796
2064.173249 -2262.265237 -411.223704
2064.172249 -2262.266188 -411.223489
2064.173159 -2262.264787 -411.224253
2064.17207 -2262.265818 -411.224047
2064.173409 -2262.264467 -411.224755
2064.172323 -2262.265378 -411.225197
2064.17326 -2262.26438 -411.225983
2064.172135 -2262.265456 -411.225713
2064.171926 -2262.265653 -411.225673
2064.172237 -2262.265544 -411.224718
2064.172727 -2262.26509 -411.224751
2064.173449 -2262.264476 -411.224508
2064.172244 -2262.265621 -411.22426
2064.173969 -2262.264107 -411.223922
2064.173205 -2262.264224 -411.224744
2064.172813 -2262.264607 -411.224602
2064.172395 -2262.265301 -411.22288
2064.173029 -2262.264855 -411.222151
2064.17379 -2262.264136 -411.222283
2064.172794 -2262.265134 -411.221797
2064.172746 -2262.265095 -411.22225
2064.173009 -2262.264492 -411.224251
2064.172273 -2262.265304 -411.223476
2064.173888 -2262.264061 -411.222207
2064.172235 -2262.265196 -411.224258
2064.172459 -2262.264688 -411.22593
2064.172659 -2262.264459 -411.226184
2064.172716 -2262.264674 -411.224719
2064.172711 -2262.264516 -411.225609
2064.172302 -2262.265191 -411.226332
2064.17273 -2262.265086 -411.22476
2064.172512 -2262.265003 -411.226308
2064.171685 -2262.265889 -411.225585
2064.170993 -2262.266659 -411.225359
2064.172908 -2262.265039 -411.226504
2064.172166 -2262.266078 -411.224511
2064.172257 -2262.265912 -411.224964
2064.173507 -2262.264817 -411.224714
2064.173298 -2262.264775 -411.225995
2064.172612 -2262.265465 -411.225642
2064.172536 -2262.26555 -411.22609
2064.171648 -2262.266747 -411.225807
2064.171599 -2262.266926 -411.225066
2064.170768 -2262.267884 -411.22397
2064.17266 -2262.266236 -411.223541
2064.171895 -2262.266502 -411.225913
2064.171231 -2262.267424 -411.224174
2064.171902 -2262.266653 -411.225587
2064.172217 -2262.266505 -411.226659
2064.17119 -2262.267746 -411.224986
2064.171486 -2262.26766 -411.223978
2064.17202 -2262.266946 -411.225219
2064.171412 -2262.267484 -411.225315
2064.171266 -2262.267393 -411.22655
2064.172019 -2262.267008 -411.224887
2064.171617 -2262.267701 -411.223093
2064.171287 -2262.267902 -411.223645
2064.172163 -2262.267215 -411.223028
2064.171445 -2262.267563 -411.224714
2064.172382 -2262.266887 -411.223733
2064.171 -2262.268252 -411.223155
2064.172161 -2262.267176 -411.223251
2064.17169 -2262.266713 -411.225786
2064.170902 -2262.267622 -411.224738
2064.171814 -2262.266855 -411.224378
2064.172089 -2262.266375 -411.225638
2064.172055 -2262.266652 -411.224287
2064.172529 -2262.266194 -411.224428
2064.172099 -2262.266656 -411.224045
2064.173132 -2262.265795 -411.2236
2064.172087 -2262.266538 -411.224751
2064.172422 -2262.265939 -411.226365
2064.171886 -2262.266761 -411.224535
2064.171681 -2262.266414 -411.2251
2064.172055 -2262.26566 -411.227371
2064.172368 -2262.265229 -411.228168
2064.172551 -2262.265521 -411.225641
2064.172935 -2262.265186 -411.225558
2064.171852 -2262.2661 -411.225433
2064.171369 -2262.265897 -411.227132
2064.173124 -2262.264556 -411.225694
2064.172772 -2262.265186 -411.223998
2064.172929 -2262.264982 -411.224333
2064.17207 -2262.265277 -411.224642
2064.173004 -2262.264389 -411.22484
2064.172726 -2262.264377 -411.226307
2064.172832 -2262.264535 -411.224903
2064.171638 -2262.265357 -411.226372
2064.172077 -2262.26512 -411.225477
2064.173106 -2262.26388 -411.22713
2064.172448 -2262.264633 -411.226287
2064.171422 -2262.265833 -411.224841
2064.17128 -2262.26572 -411.226171
2064.172068 -2262.264976 -411.226313
2064.171438 -2262.265652 -411.225752
2064.172547 -2262.264853 -411.224583
2064.172194 -2262.264973 -411.225695
2064.170753 -2262.266182 -411.226277
2064.172084 -2262.265005 -411.226069
2064.171721 -2262.26556 -411.22484
2064.170979 -2262.265985 -411.226226
2064.17265 -2262.264603 -411.225442
2064.171506 -2262.265684 -411.225236
2064.172667 -2262.26523 -411.224283
2064.171486 -2262.266315 -411.224245
2064.172273 -2262.265705 -411.223647
2064.171323 -2262.26656 -411.22371
2064.17071 -2262.266634 -411.22638
2064.17175 -2262.265521 -411.227285
2064.171747 -2262.266267 -411.225571
2064.172009 -2262.266024 -411.225597
2064.171236 -2262.266569 -411.226477
2064.171613 -2262.266347 -411.225806
2064.171774 -2262.266069 -411.226526
2064.172017 -2262.265885 -411.226849
2064.172096 -2262.266077 -411.227243
2064.171836 -2262.26683 -411.224411
2064.170727 -2262.267336 -411.227191
2064.17255 -2262.265846 -411.226234
2064.171369 -2262.266877 -411.226496
2064.170845 -2262.267199 -411.227355
2064.171287 -2262.267182 -411.225224
2064.171616 -2262.266574 -411.226923
2064.171418 -2262.266756 -411.226913
2064.171536 -2262.26667 -411.226794
2064.17238 -2262.266144 -411.22545
2064.172684 -2262.266198 -411.223633
2064.172374 -2262.266586 -411.22305
2064.171976 -2262.266542 -411.22529
2064.171934 -2262.266388 -411.22635
2064.171822 -2262.266784 -411.224733
2064.172869 -2262.265808 -411.224841
2064.17218 -2262.266334 -411.225411
2064.171866 -2262.266507 -411.226035
2064.171858 -2262.266478 -411.226233
2064.172485 -2262.26625 -411.224344
2064.172696 -2262.265874 -411.225348
2064.172526 -2262.265936 -411.225865
2064.172446 -2262.266032 -411.225736
2064.172006 -2262.266398 -411.225401
2064.172453 -2262.265303 -411.227333
2064.171115 -2262.266894 -411.225293
2064.172879 -2262.264926 -411.227269
2064.171765 -2262.266198 -411.225866
2064.171689 -2262.266438 -411.224924
2064.171803 -2262.266471 -411.22417
2064.171716 -2262.266595 -411.223927
2064.172483 -2262.26602 -411.223234
2064.173058 -2262.265205 -411.224836
2064.173145 -2262.265126 -411.224832
2064.173066 -2262.265067 -411.225551
2064.1714 -2262.266409 -411.226535
2064.172856 -2262.264967 -411.227159
2064.172088 -2262.26589 -411.225936
2064.171936 -2262.265696 -411.227767
