ply
format ascii 1.0
element vertex 1305
property float x
property float y
property float z
end_header
2296.347612 -2416.220545 -442.579301
2296.345976 -2416.221948 -442.58013
2296.34642 -2416.221763 -442.578833
2296.346646 -2416.221334 -442.580006
2296.346205 -2416.221391 -442.58198
2296.346496 -2416.221504 -442.579858
2296.347151 -2416.221078 -442.578786
2296.34701 -2416.220926 -442.580347
2296.347563 -2416.220604 -442.579237
2296.346812 -2416.221454 -442.578491
2296.346826 -2416.221364 -442.578908
2296.346251 -2416.222002 -442.578406
2296.346317 -2416.222003 -442.578061
2296.346802 -2416.221349 -442.579117
2296.346926 -2416.22124 -442.57907
2296.347156 -2416.221119 -442.578537
2296.347046 -2416.221206 -442.578632
2296.346871 -2416.221423 -442.578351
2296.346634 -2416.221501 -442.579153
2296.347052 -2416.221196 -442.578657
2296.346981 -2416.221493 -442.577401
2296.347083 -2416.221309 -442.577874
2296.347371 -2416.221058 -442.577752
2296.347288 -2416.220997 -442.578515
2296.346822 -2416.221316 -442.57919
2296.347429 -2416.221091 -442.57727
2296.346777 -2416.221417 -442.578876
2296.347739 -2416.220333 -442.5798
2296.345938 -2416.222211 -442.578891
2296.346924 -2416.221243 -442.579062
2296.346623 -2416.221353 -442.580026
2296.347441 -2416.220536 -442.580238
2296.347923 -2416.220153 -442.579828
2296.348053 -2416.220255 -442.578596
2296.348244 -2416.220053 -442.578707
2296.347625 -2416.220236 -442.580919
2296.347188 -2416.220903 -442.579546
2296.347549 -2416.220929 -442.577531
2296.348076 -2416.220373 -442.577832
2296.347328 -2416.22077 -442.579549
2296.346537 -2416.221196 -442.58133
2296.346966 -2416.221014 -442.580093
2296.347397 -2416.220534 -442.580479
2296.347229 -2416.220693 -442.58048
2296.348312 -2416.219701 -442.580277
2296.346696 -2416.221248 -442.580217
2296.347356 -2416.220708 -442.579743
2296.347387 -2416.220768 -442.57925
2296.346634 -2416.221823 -442.577402
2296.347351 -2416.22092 -442.578608
2296.346889 -2416.221008 -442.578119
2296.34766 -2416.220038 -442.579417
2296.347494 -2416.22023 -442.579233
2296.348182 -2416.219633 -442.578921
2296.347378 -2416.220408 -442.578859
2296.346591 -2416.221296 -442.578091
2296.347317 -2416.22023 -442.580148
2296.346926 -2416.220937 -442.578316
2296.346365 -2416.221228 -442.57964
2296.347573 -2416.220356 -442.578134
2296.347719 -2416.219804 -442.58039
2296.346921 -2416.22102 -442.577891
2296.347039 -2416.220659 -442.579249
2296.3463 -2416.221265 -442.579773
2296.34639 -2416.221089 -442.580268
2296.346403 -2416.221398 -442.578516
2296.346919 -2416.220959 -442.578237
2296.347468 -2416.220061 -442.580286
2296.347825 -2416.219994 -442.578803
2296.346561 -2416.220395 -442.58317
2296.346332 -2416.22095 -442.581329
2296.347032 -2416.220375 -442.580838
2296.347026 -2416.220562 -442.579843
2296.346957 -2416.220636 -442.5798
2296.346882 -2416.220583 -442.580478
2296.346631 -2416.221005 -442.579478
2296.346398 -2416.221136 -442.579971
2296.347034 -2416.220391 -442.580735
2296.347301 -2416.220009 -442.581443
2296.346297 -2416.221023 -442.581113
2296.347054 -2416.22024 -442.581457
2296.346065 -2416.221335 -442.580614
2296.346292 -2416.221049 -442.580995
2296.346133 -2416.221252 -442.580714
2296.346604 -2416.221093 -442.57914
2296.346628 -2416.221336 -442.577685
2296.347577 -2416.220412 -442.577809
2296.346707 -2416.221016 -442.57902
2296.346048 -2416.221735 -442.578515
2296.346958 -2416.220683 -442.57954
2296.34799 -2416.219678 -442.579671
2296.347034 -2416.220499 -442.580146
2296.346784 -2416.22109 -442.578222
2296.34675 -2416.221056 -442.578579
2296.345714 -2416.22198 -442.578915
2296.346733 -2416.221021 -442.578864
2296.347226 -2416.220574 -442.578738
2296.348273 -2416.219216 -442.580727
2296.346543 -2416.221164 -442.579066
2296.346235 -2416.22155 -442.578553
2296.346522 -2416.221532 -442.579571
2296.346297 -2416.221706 -442.57979
2296.345462 -2416.222337 -442.580674
2296.346587 -2416.221634 -442.578672
2296.345651 -2416.222317 -442.579802
2296.345242 -2416.222609 -442.58033
2296.345844 -2416.221865 -442.581266
2296.346438 -2416.22171 -442.579033
2296.347284 -2416.221195 -442.577456
2296.345453 -2416.223282 -442.577966
2296.346803 -2416.221862 -442.578714
2296.347115 -2416.221468 -442.579245
2296.346696 -2416.221741 -442.57993
2296.34571 -2416.222683 -442.579903
2296.344946 -2416.223334 -442.580313
2296.346335 -2416.222413 -442.578135
2296.346622 -2416.222015 -442.578819
2296.345748 -2416.222874 -442.578661
2296.345737 -2416.222723 -442.579545
2296.346072 -2416.222521 -442.578911
2296.34561 -2416.222953 -442.578945
2296.346082 -2416.222656 -442.578118
2296.344807 -2416.223457 -442.58036
2296.344946 -2416.223408 -442.579439
2296.346657 -2416.221945 -442.576618
2296.345402 -2416.222705 -442.578979
2296.344673 -2416.223296 -442.579532
2296.345372 -2416.222679 -442.579275
2296.344613 -2416.223632 -442.578012
2296.345491 -2416.222482 -442.579736
2296.34448 -2416.223428 -442.579809
2296.344379 -2416.223404 -442.580466
2296.345804 -2416.222278 -442.579225
2296.344073 -2416.223908 -442.579305
2296.34398 -2416.223899 -442.577432
2296.343911 -2416.224029 -442.577081
2296.344706 -2416.223208 -442.577441
2296.344738 -2416.222948 -442.578689
2296.343716 -2416.223914 -442.57872
2296.343102 -2416.224794 -442.577104
2296.343759 -2416.224195 -442.576962
2296.343235 -2416.224295 -442.579135
2296.343012 -2416.224469 -442.579341
2296.343082 -2416.224714 -442.577646
2296.344716 -2416.22268 -442.58027
2296.344729 -2416.222986 -442.578529
2296.343725 -2416.223911 -442.578689
2296.343363 -2416.223958 -442.580311
2296.344451 -2416.223206 -442.57877
2296.343328 -2416.224256 -442.578866
2296.342185 -2416.225629 -442.577305
2296.343749 -2416.223882 -442.578726
2296.34286 -2416.224516 -442.579871
2296.343353 -2416.224543 -442.577169
2296.343748 -2416.223894 -442.578664
2296.344061 -2416.223497 -442.579203
2296.343434 -2416.22411 -442.579112
2296.34239 -2416.225207 -442.57854
2296.34406 -2416.223554 -442.578901
2296.34298 -2416.224681 -442.578354
2296.343283 -2416.224034 -442.580314
2296.343454 -2416.223983 -442.579699
2296.343359 -2416.224206 -442.578981
2296.343467 -2416.224289 -442.577962
2296.342416 -2416.225092 -442.579034
2296.341581 -2416.225967 -442.578589
2296.342189 -2416.225643 -442.577204
2296.342911 -2416.225223 -442.575754
2296.342473 -2416.225498 -442.576525
2296.342395 -2416.225619 -442.576268
2296.34268 -2416.225204 -442.577048
2296.342073 -2416.225531 -442.578417
2296.342918 -2416.224636 -442.578919
2296.342492 -2416.225203 -442.578037
2296.343103 -2416.224763 -442.577264
2296.341784 -2416.226612 -442.576419
2296.341915 -2416.226396 -442.576921
2296.342833 -2416.225678 -442.576073
2296.34255 -2416.225649 -442.577701
2296.341891 -2416.225995 -442.579231
2296.342576 -2416.225451 -442.578651
2296.342541 -2416.225663 -442.577669
2296.341674 -2416.226325 -442.578557
2296.342341 -2416.226256 -442.577877
2296.341608 -2416.227009 -442.57757
2296.341345 -2416.227407 -442.576758
2296.341825 -2416.226382 -442.579865
2296.342044 -2416.226492 -442.578129
2296.342424 -2416.226216 -442.577667
2296.341273 -2416.227229 -442.578106
2296.341071 -2416.227532 -442.577498
2296.341495 -2416.227011 -442.578142
2296.341341 -2416.227155 -442.578158
2296.341195 -2416.227253 -442.578375
2296.341588 -2416.227157 -442.576867
2296.339865 -2416.228589 -442.577986
2296.341178 -2416.22711 -442.579249
2296.34119 -2416.227622 -442.576393
2296.340935 -2416.227768 -442.576916
2296.342333 -2416.226605 -442.576012
2296.340773 -2416.227904 -442.577015
2296.34056 -2416.22834 -442.575739
2296.340684 -2416.228042 -442.576722
2296.340802 -2416.228112 -442.575731
2296.341228 -2416.227793 -442.575258
2296.340976 -2416.227665 -442.577268
2296.339958 -2416.228603 -442.577431
2296.339943 -2416.228227 -442.577156
2296.340439 -2416.227823 -442.576785
2296.340244 -2416.228159 -442.575961
2296.339513 -2416.228914 -442.575636
2296.338558 -2416.229201 -442.579022
2296.340238 -2416.227798 -442.577965
2296.340653 -2416.2275 -442.577443
2296.339655 -2416.22858 -442.576721
2296.340168 -2416.228051 -442.576947
2296.339758 -2416.228347 -442.577454
2296.340042 -2416.227939 -442.578214
2296.340806 -2416.227304 -442.577717
2296.340241 -2416.227588 -442.579099
2296.339041 -2416.228819 -442.578603
2296.338886 -2416.228747 -442.579798
2296.339287 -2416.228677 -442.5781
2296.340453 -2416.227593 -442.577967
2296.339743 -2416.228321 -442.577678
2296.339828 -2416.228341 -442.577132
2296.338815 -2416.228906 -442.579303
2296.339237 -2416.22867 -442.577933
2296.338529 -2416.229042 -442.577632
2296.339378 -2416.228395 -442.576767
2296.339 -2416.228824 -442.576385
2296.33833 -2416.229278 -442.577379
2296.339228 -2416.228541 -442.576747
2296.338612 -2416.22925 -442.576069
2296.33959 -2416.228183 -442.576821
2296.338488 -2416.229192 -442.577033
2296.336948 -2416.23069 -442.576845
2296.33739 -2416.230237 -442.577023
2296.338325 -2416.229666 -442.575291
2296.339185 -2416.228661 -442.576315
2296.338666 -2416.228778 -442.578369
2296.339372 -2416.228188 -442.577928
2296.338747 -2416.229091 -442.576235
2296.337586 -2416.230052 -442.577011
2296.337713 -2416.229751 -442.578003
2296.337972 -2416.229742 -442.576708
2296.33778 -2416.230047 -442.576034
2296.338444 -2416.229169 -442.577385
2296.337756 -2416.229915 -442.576884
2296.338378 -2416.229456 -442.57616
2296.337895 -2416.230012 -442.575631
2296.337895 -2416.230012 -442.575631
2296.337353 -2416.230582 -442.575331
2296.337652 -2416.229844 -442.577808
2296.337537 -2416.230204 -442.576438
2296.337915 -2416.229732 -442.577058
2296.337144 -2416.230681 -442.575875
2296.337233 -2416.230301 -442.577491
2296.338182 -2416.230094 -442.576098
2296.337992 -2416.23012 -442.576947
2296.337733 -2416.230466 -442.576397
2296.338204 -2416.229874 -442.577182
2296.337803 -2416.230323 -442.576814
2296.337475 -2416.230617 -442.576914
2296.336428 -2416.231607 -442.576941
2296.338454 -2416.229611 -442.577323
2296.337679 -2416.230526 -442.576351
2296.337446 -2416.230554 -442.577402
2296.337556 -2416.230443 -442.577441
2296.337571 -2416.230613 -442.576434
2296.337639 -2416.230798 -442.575069
2296.337464 -2416.230851 -442.575693
2296.336634 -2416.231296 -442.577565
2296.337425 -2416.230796 -442.576193
2296.337616 -2416.230774 -442.575322
2296.337723 -2416.230689 -442.575231
2296.335508 -2416.232706 -442.575714
2296.337275 -2416.230911 -442.57634
2296.337271 -2416.230987 -442.575949
2296.336792 -2416.231371 -442.576334
2296.335989 -2416.231905 -442.577594
2296.336264 -2416.23178 -442.576847
2296.337225 -2416.23085 -442.576939
2296.336806 -2416.231329 -442.576495
2296.336562 -2416.231649 -442.576015
2296.335915 -2416.232529 -442.574571
2296.337194 -2416.230978 -442.576398
2296.336808 -2416.231326 -442.576503
2296.336807 -2416.232085 -442.574765
2296.33604 -2416.232606 -442.575902
2296.336926 -2416.23198 -442.574724
2296.336633 -2416.23221 -442.57499
2296.336456 -2416.232299 -442.575419
2296.337276 -2416.231447 -442.575818
2296.334722 -2416.233789 -442.576283
2296.336545 -2416.23195 -442.576862
2296.337267 -2416.231092 -442.577798
2296.337313 -2416.230982 -442.578159
2296.336855 -2416.231539 -442.577501
2296.336694 -2416.231684 -442.577537
2296.336294 -2416.232074 -442.577488
2296.336776 -2416.231302 -442.579197
2296.335832 -2416.232658 -442.5767
2296.336233 -2416.23245 -442.57575
2296.336091 -2416.232503 -442.575744
2296.335543 -2416.232657 -442.575796
2296.334534 -2416.233431 -442.57681
2296.33699 -2416.231167 -442.576425
2296.336622 -2416.231622 -442.575848
2296.335803 -2416.232264 -442.576597
2296.336136 -2416.232185 -442.5753
2296.335496 -2416.23227 -442.575751
2296.335248 -2416.232509 -442.575733
2296.334803 -2416.232967 -442.575541
2296.33622 -2416.23179 -442.574613
2296.335136 -2416.232388 -442.576972
2296.336572 -2416.230916 -442.577559
2296.335603 -2416.232183 -442.57567
2296.335701 -2416.231832 -442.577075
2296.335068 -2416.232841 -442.574857
2296.335011 -2416.232656 -442.576161
2296.335333 -2416.232407 -442.575848
2296.334975 -2416.232653 -442.576366
2296.336059 -2416.231686 -442.576022
2296.336537 -2416.231182 -442.576286
2296.335126 -2416.232347 -442.57725
2296.33494 -2416.232475 -442.57752
2296.334553 -2416.232962 -442.576866
2296.335681 -2416.231822 -442.577239
2296.335338 -2416.232412 -442.575796
2296.335379 -2416.232197 -442.576753
2296.335964 -2416.231415 -442.577991
2296.335182 -2416.232492 -442.57617
2296.335098 -2416.232931 -442.574207
2296.335163 -2416.232522 -442.576102
2296.334965 -2416.232668 -442.576332
2296.333774 -2416.233885 -442.575868
2296.334457 -2416.233053 -442.576868
2296.335147 -2416.232457 -442.576541
2296.335353 -2416.232201 -442.576864
2296.334629 -2416.232887 -442.57688
2296.333635 -2416.23408 -442.575525
2296.334883 -2416.232737 -442.576383
2296.334393 -2416.233184 -442.576488
2296.336463 -2416.231368 -442.575656
2296.333975 -2416.233484 -442.577013
2296.335726 -2416.231985 -442.576116
2296.334896 -2416.232961 -442.575092
2296.334967 -2416.232871 -442.575211
2296.335849 -2416.231999 -442.575395
2296.336061 -2416.231345 -442.577869
2296.334643 -2416.232842 -442.57705
2296.335492 -2416.232146 -442.576451
2296.334631 -2416.232747 -442.577633
2296.335127 -2416.232728 -442.575164
2296.335426 -2416.232357 -442.575639
2296.334388 -2416.233875 -442.575141
2296.335225 -2416.23329 -442.573992
2296.335802 -2416.232251 -442.576668
2296.333972 -2416.23399 -442.576675
2296.335646 -2416.23247 -442.576285
2296.335214 -2416.232863 -442.576377
2296.335468 -2416.232988 -442.574837
2296.335285 -2416.233319 -442.575927
2296.335763 -2416.23311 -442.574587
2296.334706 -2416.234228 -442.573969
2296.334645 -2416.233682 -442.577265
2296.335519 -2416.232713 -442.578022
2296.334557 -2416.23401 -442.575933
2296.335062 -2416.233547 -442.575842
2296.335227 -2416.233134 -442.577241
2296.335891 -2416.232571 -442.576868
2296.33552 -2416.232888 -442.577057
2296.33501 -2416.23378 -442.574833
2296.335461 -2416.233298 -442.575127
2296.335006 -2416.233581 -442.575945
2296.335396 -2416.233088 -442.576616
2296.335959 -2416.232165 -442.578729
2296.335616 -2416.232641 -442.577909
2296.335573 -2416.232796 -442.577289
2296.335341 -2416.233211 -442.576227
2296.33454 -2416.233994 -442.576108
2296.334288 -2416.234315 -442.575663
2296.33447 -2416.234068 -442.576066
2296.335688 -2416.232999 -442.575581
2296.335644 -2416.233225 -442.574578
2296.334992 -2416.233955 -442.573974
2296.334831 -2416.233833 -442.575473
2296.334705 -2416.233908 -442.575721
2296.333778 -2416.23502 -442.574459
2296.334669 -2416.233814 -442.574012
2296.334797 -2416.23387 -442.573049
2296.336184 -2416.232303 -442.574402
2296.3352 -2416.233094 -442.575189
2296.335218 -2416.232855 -442.576405
2296.335787 -2416.232631 -442.574674
2296.334235 -2416.233752 -442.576609
2296.335499 -2416.233152 -442.572881
2296.334967 -2416.232871 -442.575211
2296.334931 -2416.232869 -442.575409
2296.334905 -2416.233019 -442.574724
2296.334949 -2416.232658 -442.576472
2296.334844 -2416.233093 -442.57464
2296.335031 -2416.232953 -442.574435
2296.336453 -2416.231502 -442.574975
2296.335063 -2416.232936 -442.574364
2296.33519 -2416.232645 -442.575291
2296.33625 -2416.231935 -442.573225
2296.334814 -2416.232788 -442.574057
2296.335235 -2416.232109 -442.575582
2296.335043 -2416.232179 -442.576198
2296.335158 -2416.232208 -442.57544
2296.335905 -2416.231279 -442.576635
2296.334596 -2416.23285 -442.574846
2296.336001 -2416.231571 -442.574546
2296.335042 -2416.232432 -442.574822
2296.33453 -2416.232975 -442.574511
2296.334924 -2416.23227 -442.576319
2296.335371 -2416.231981 -442.575575
2296.335592 -2416.232034 -442.574139
2296.336026 -2416.231591 -442.574308
2296.335176 -2416.232654 -442.572915
2296.335299 -2416.232278 -442.574324
2296.335526 -2416.232115 -442.574037
2296.336003 -2416.231567 -442.574554
2296.3357 -2416.231944 -442.574067
2296.335272 -2416.232262 -442.574554
2296.335612 -2416.231884 -442.574852
2296.334522 -2416.232928 -442.574807
2296.334813 -2416.232499 -442.575637
2296.33538 -2416.23235 -442.573513
2296.335607 -2416.232559 -442.573596
2296.335216 -2416.233054 -442.572925
2296.335718 -2416.232204 -442.574959
2296.335623 -2416.232272 -442.575079
2296.33486 -2416.233104 -442.574498
2296.336542 -2416.231113 -442.576641
2296.336231 -2416.231774 -442.574646
2296.335127 -2416.232772 -442.574927
2296.335283 -2416.233113 -442.572702
2296.335778 -2416.232574 -442.575036
2296.335528 -2416.232891 -442.5746
2296.33545 -2416.232864 -442.575151
2296.33607 -2416.23242 -442.574357
2296.335717 -2416.233016 -442.572935
2296.33629 -2416.232485 -442.575268
2296.335865 -2416.232796 -442.575771
2296.336221 -2416.232831 -442.573737
2296.336044 -2416.232618 -442.575814
2296.33556 -2416.233178 -442.575273
2296.336516 -2416.232145 -442.575948
2296.336837 -2416.232237 -442.573779
2296.335497 -2416.233252 -442.57519
2296.335495 -2416.233255 -442.575183
2296.336018 -2416.232654 -442.575757
2296.33687 -2416.231694 -442.576574
2296.336965 -2416.231624 -442.576463
2296.335949 -2416.232933 -442.574587
2296.337218 -2416.231645 -442.575034
2296.336218 -2416.232557 -442.575248
2296.336621 -2416.232168 -442.575276
2296.336437 -2416.232569 -442.574045
2296.336145 -2416.232707 -442.574809
2296.336313 -2416.232275 -442.576293
2296.336434 -2416.232343 -442.575296
2296.33691 -2416.232003 -442.574683
2296.338423 -2416.230772 -442.573551
2296.338552 -2416.230544 -442.574129
2296.337188 -2416.231854 -442.57405
2296.337854 -2416.230969 -442.575427
2296.338027 -2416.230752 -442.575718
2296.336825 -2416.232105 -442.574564
2296.336484 -2416.232707 -442.573048
2296.336222 -2416.232864 -442.573548
2296.335932 -2416.233008 -442.574267
2296.336635 -2416.232343 -442.571844
2296.337043 -2416.231562 -442.573996
2296.336736 -2416.231626 -442.575237
2296.337116 -2416.231676 -442.572994
2296.336673 -2416.231826 -442.574477
2296.337494 -2416.230995 -442.574748
2296.336948 -2416.231311 -442.575856
2296.336456 -2416.231753 -442.575997
2296.337818 -2416.230582 -442.575321
2296.337565 -2416.231154 -442.573516
2296.337343 -2416.231165 -442.574604
2296.336011 -2416.232343 -442.57508
2296.336605 -2416.23187 -442.574587
2296.337474 -2416.231096 -442.574299
2296.338128 -2416.23055 -442.573888
2296.337331 -2416.231006 -442.575536
2296.337743 -2416.230716 -442.574982
2296.336035 -2416.232484 -442.574187
2296.337369 -2416.231182 -442.574377
2296.337968 -2416.23056 -442.574226
2296.337248 -2416.231005 -442.573566
2296.337609 -2416.230652 -442.57362
2296.337029 -2416.23133 -442.572925
2296.337346 -2416.230613 -442.575203
2296.337169 -2416.230657 -442.575876
2296.337785 -2416.230204 -442.57515
2296.337522 -2416.230228 -442.576384
2296.336489 -2416.231391 -442.575398
2296.338172 -2416.230143 -442.573474
2296.338011 -2416.230295 -442.573486
2296.338378 -2416.22984 -442.574066
2296.338125 -2416.229982 -442.5746
2296.338404 -2416.229856 -442.573839
2296.339718 -2416.228645 -442.573632
2296.337557 -2416.230865 -442.572726
2296.337584 -2416.230652 -442.573751
2296.338011 -2416.230609 -442.571772
2296.33773 -2416.230689 -442.572787
2296.339217 -2416.229008 -442.574253
2296.337994 -2416.230051 -442.574904
2296.338902 -2416.229453 -442.573457
2296.337837 -2416.230601 -442.572716
2296.338489 -2416.22941 -442.575833
2296.338833 -2416.229515 -442.573478
2296.338123 -2416.229865 -442.575251
2296.337558 -2416.230472 -442.574866
2296.337116 -2416.230931 -442.574656
2296.338094 -2416.230245 -442.573325
2296.33928 -2416.228929 -442.574358
2296.338796 -2416.229359 -442.574517
2296.338636 -2416.229436 -442.574932
2296.338313 -2416.22992 -442.573966
2296.339726 -2416.22867 -442.573457
2296.338474 -2416.230293 -442.573498
2296.337873 -2416.230778 -442.573965
2296.338526 -2416.230128 -442.574127
2296.339516 -2416.22921 -442.574004
2296.338545 -2416.230202 -442.573621
2296.339285 -2416.229176 -442.575385
2296.337998 -2416.230663 -442.573947
2296.33866 -2416.230234 -442.572855
2296.339349 -2416.229371 -442.573992
2296.338254 -2416.230585 -442.573485
2296.338946 -2416.230399 -442.572875
2296.339453 -2416.229978 -442.572536
2296.339572 -2416.229865 -442.572543
2296.339421 -2416.22974 -442.574005
2296.339803 -2416.229555 -442.573036
2296.340425 -2416.228567 -442.575198
2296.339331 -2416.229666 -442.574876
2296.339229 -2416.230033 -442.573406
2296.338988 -2416.230334 -442.573011
2296.339113 -2416.229654 -442.576074
2296.33872 -2416.230211 -442.575071
2296.340207 -2416.228797 -442.575078
2296.339621 -2416.2295 -442.574278
2296.340279 -2416.228813 -442.574616
2296.339382 -2416.229651 -442.574698
2296.339404 -2416.229673 -442.57446
2296.340194 -2416.228808 -442.575081
2296.339408 -2416.229839 -442.573532
2296.339974 -2416.229109 -442.574581
2296.339358 -2416.229571 -442.575254
2296.339302 -2416.229754 -442.574544
2296.33963 -2416.229459 -442.574452
2296.339614 -2416.229364 -442.57506
2296.340206 -2416.228892 -442.574565
2296.339319 -2416.229411 -442.576333
2296.339904 -2416.229198 -442.57446
2296.340578 -2416.228677 -442.573807
2296.341283 -2416.227867 -442.574571
2296.339739 -2416.229401 -442.574205
2296.340676 -2416.228406 -442.574773
2296.339068 -2416.230021 -442.574301
2296.339526 -2416.229422 -442.575195
2296.338648 -2416.230619 -442.573218
2296.340496 -2416.228874 -442.573157
2296.339522 -2416.229199 -442.57403
2296.340372 -2416.2285 -442.573438
2296.340037 -2416.228763 -442.573744
2296.341723 -2416.226693 -442.576295
2296.339672 -2416.229289 -442.572762
2296.339508 -2416.2289 -442.573334
2296.339034 -2416.229756 -442.571122
2296.339305 -2416.229158 -442.572978
2296.340016 -2416.228501 -442.572876
2296.340098 -2416.22806 -442.57486
2296.339984 -2416.228446 -442.572908
2296.340491 -2416.227721 -442.572263
2296.340893 -2416.227349 -442.572215
2296.33878 -2416.228849 -442.574983
2296.33997 -2416.227793 -442.574575
2296.340707 -2416.227377 -442.573021
2296.339006 -2416.228725 -442.574487
2296.339281 -2416.228735 -442.573007
2296.341371 -2416.226787 -442.572802
2296.340409 -2416.227771 -442.57242
2296.339448 -2416.228487 -442.573494
2296.340356 -2416.227956 -442.571685
2296.339659 -2416.228123 -442.574388
2296.338491 -2416.229168 -442.574743
2296.341645 -2416.225992 -442.575717
2296.34147 -2416.226486 -442.57393
2296.33986 -2416.228057 -442.573702
2296.340202 -2416.227841 -442.573108
2296.340663 -2416.227483 -442.572674
2296.340461 -2416.227357 -442.574408
2296.339813 -2416.228018 -442.574162
2296.340283 -2416.227479 -442.574668
2296.340951 -2416.226865 -442.574553
2296.339717 -2416.227967 -442.57494
2296.34109 -2416.226962 -442.573301
2296.340701 -2416.227121 -442.57445
2296.339924 -2416.228209 -442.574949
2296.341202 -2416.227135 -442.574179
2296.34243 -2416.226002 -442.573997
2296.3414 -2416.22712 -442.573233
2296.341508 -2416.227408 -442.5711
2296.341125 -2416.227602 -442.57203
2296.340495 -2416.228168 -442.572204
2296.340889 -2416.227679 -442.572836
2296.34037 -2416.228175 -442.572818
2296.342366 -2416.226285 -442.572776
2296.341407 -2416.227848 -442.571631
2296.342358 -2416.227005 -442.571295
2296.341955 -2416.227063 -442.573071
2296.340333 -2416.228621 -442.57298
2296.342015 -2416.227205 -442.571983
2296.341949 -2416.227389 -442.57132
2296.341339 -2416.227847 -442.571983
2296.342363 -2416.226599 -442.573485
2296.341829 -2416.227454 -442.572015
2296.341289 -2416.228492 -442.571125
2296.342773 -2416.226802 -442.572658
2296.342367 -2416.227261 -442.572251
2296.341246 -2416.228006 -442.574005
2296.342526 -2416.227385 -442.570749
2296.341895 -2416.228368 -442.571061
2296.343096 -2416.226996 -442.572321
2296.342557 -2416.227349 -442.573189
2296.342591 -2416.227036 -442.57472
2296.34137 -2416.228092 -442.575296
2296.341372 -2416.228089 -442.575303
2296.341541 -2416.227921 -442.57534
2296.341752 -2416.227927 -442.574215
2296.342017 -2416.227673 -442.574228
2296.341434 -2416.228229 -442.574214
2296.343248 -2416.226552 -442.573962
2296.342071 -2416.227798 -442.573265
2296.343279 -2416.226557 -442.57377
2296.341761 -2416.227912 -442.574249
2296.342661 -2416.227271 -442.573076
2296.342352 -2416.227375 -442.574114
2296.342652 -2416.227004 -442.574583
2296.342272 -2416.227481 -442.573954
2296.342343 -2416.227377 -442.571747
2296.343034 -2416.226627 -442.572257
2296.342442 -2416.22704 -442.573073
2296.342817 -2416.226297 -442.575179
2296.344098 -2416.225573 -442.57249
2296.342342 -2416.227099 -442.570867
2296.341842 -2416.227305 -442.572337
2296.340651 -2416.228274 -442.573226
2296.342949 -2416.226385 -442.571612
2296.342925 -2416.226366 -442.571838
2296.342394 -2416.226981 -442.57124
2296.342218 -2416.22653 -442.572212
2296.34311 -2416.225637 -442.572457
2296.342622 -2416.226022 -442.572885
2296.342912 -2416.225659 -442.573366
2296.342251 -2416.226317 -442.573201
2296.341505 -2416.227149 -442.572528
2296.342375 -2416.226268 -442.572827
2296.342566 -2416.226048 -442.573035
2296.342522 -2416.226152 -442.572697
2296.342809 -2416.226059 -442.571716
2296.341705 -2416.226998 -442.572317
2296.342144 -2416.226352 -442.573567
2296.343295 -2416.22497 -442.575142
2296.34284 -2416.225544 -442.574368
2296.341853 -2416.2265 -442.574265
2296.342056 -2416.226204 -442.574829
2296.342071 -2416.226238 -442.57457
2296.342917 -2416.225443 -442.574521
2296.342383 -2416.226161 -442.573371
2296.342518 -2416.225892 -442.574137
2296.342536 -2416.22601 -442.573398
2296.343458 -2416.22506 -442.573803
2296.342574 -2416.226117 -442.572619
2296.342947 -2416.225211 -442.575632
2296.344378 -2416.224355 -442.572881
2296.343401 -2416.225312 -442.57272
2296.342077 -2416.226477 -442.573234
2296.343095 -2416.225902 -442.57109
2296.342857 -2416.22531 -442.573152
2296.342701 -2416.225506 -442.572893
2296.343788 -2416.224587 -442.57227
2296.342933 -2416.225211 -442.573297
2296.342947 -2416.225274 -442.572878
2296.342363 -2416.225833 -442.572864
2296.343401 -2416.225016 -442.571934
2296.342398 -2416.22556 -442.574168
2296.342696 -2416.225408 -442.573454
2296.34345 -2416.225051 -442.57149
2296.342946 -2416.225317 -442.572652
2296.343542 -2416.225342 -442.571831
2296.342854 -2416.225985 -442.571883
2296.344301 -2416.22439 -442.573089
2296.342881 -2416.225598 -442.573857
2296.343127 -2416.225417 -442.573571
2296.342902 -2416.22601 -442.571924
2296.343158 -2416.226038 -442.572421
2296.343358 -2416.225764 -442.572885
2296.343283 -2416.225859 -442.572748
2296.343547 -2416.225563 -442.572998
2296.344191 -2416.224599 -442.574922
2296.342801 -2416.226614 -442.573536
2296.343912 -2416.225448 -442.574134
2296.343141 -2416.226312 -442.57342
2296.343936 -2416.225183 -442.575459
2296.345085 -2416.22427 -442.574482
2296.343047 -2416.226282 -442.574074
2296.344615 -2416.224811 -442.573968
2296.343567 -2416.2259 -442.57346
2296.344087 -2416.225421 -442.573378
2296.343665 -2416.225863 -442.573149
2296.342592 -2416.226604 -442.574676
2296.345003 -2416.224657 -442.572794
2296.344762 -2416.224662 -442.574016
2296.344307 -2416.22522 -442.573327
2296.343834 -2416.225767 -442.572796
2296.345228 -2416.224758 -442.571076
2296.343874 -2416.225949 -442.571601
2296.342762 -2416.227036 -442.571432
2296.343828 -2416.225961 -442.571774
2296.343424 -2416.226025 -442.57352
2296.34281 -2416.226588 -442.57363
2296.344124 -2416.22566 -442.571882
2296.344438 -2416.225266 -442.572402
2296.343848 -2416.225508 -442.574138
2296.344725 -2416.225058 -442.572046
2296.343424 -2416.226017 -442.573562
2296.343283 -2416.22642 -442.572092
2296.344351 -2416.225301 -442.572663
2296.344014 -2416.22546 -442.573541
2296.343677 -2416.225945 -442.57264
2296.344698 -2416.224805 -442.573566
2296.344159 -2416.225223 -442.574083
2296.344912 -2416.224387 -442.574738
2296.344748 -2416.224644 -442.574189
2296.345231 -2416.224259 -442.573786
2296.344272 -2416.225041 -442.574487
2296.34514 -2416.224179 -442.57469
2296.343781 -2416.225344 -442.575386
2296.344028 -2416.2255 -442.573249
2296.34468 -2416.22473 -442.574072
2296.344304 -2416.225199 -442.573457
2296.343982 -2416.225608 -442.572902
2296.344765 -2416.224674 -442.573939
2296.344888 -2416.224198 -442.573494
2296.344323 -2416.224409 -442.575274
2296.343783 -2416.224909 -442.575341
2296.344325 -2416.224679 -442.573784
2296.343886 -2416.224953 -442.574569
2296.34407 -2416.224945 -442.573659
2296.345459 -2416.223477 -442.574465
2296.343138 -2416.225486 -442.573138
2296.344515 -2416.224104 -442.57354
2296.343949 -2416.224427 -442.57471
2296.344538 -2416.223863 -442.574731
2296.344182 -2416.224358 -442.573879
2296.343674 -2416.22452 -442.573225
2296.345121 -2416.223415 -442.57175
2296.34502 -2416.223312 -442.572838
2296.345625 -2416.222651 -442.573306
2296.344154 -2416.223779 -442.57478
2296.344693 -2416.223263 -442.574803
2296.343282 -2416.224951 -442.572905
2296.344633 -2416.223706 -442.572695
2296.343434 -2416.224874 -442.572537
2296.34454 -2416.223869 -442.572282
2296.344258 -2416.223683 -442.574769
2296.345239 -2416.222863 -442.574152
2296.344869 -2416.223025 -442.575188
2296.343575 -2416.224599 -442.573304
2296.344979 -2416.223114 -442.574131
2296.343511 -2416.224461 -442.574394
2296.344301 -2416.223647 -442.574743
2296.344714 -2416.223172 -442.575191
2296.344923 -2416.223179 -442.574063
2296.345163 -2416.222882 -442.57444
2296.345014 -2416.223112 -442.573958
2296.345703 -2416.222955 -442.573646
2296.345516 -2416.223185 -442.573359
2296.345584 -2416.2231 -442.573476
2296.345285 -2416.223156 -442.574716
2296.346039 -2416.222222 -442.575907
2296.345297 -2416.223411 -442.573261
2296.344999 -2416.223791 -442.575136
2296.345985 -2416.222782 -442.575532
2296.345095 -2416.223524 -442.576099
2296.345361 -2416.223874 -442.572808
2296.34557 -2416.223321 -442.574738
2296.345468 -2416.223219 -442.575826
2296.344307 -2416.224279 -442.576063
2296.345284 -2416.223616 -442.574615
2296.34484 -2416.224008 -442.574781
2296.344658 -2416.224107 -442.575187
2296.345667 -2416.223445 -442.57356
2296.345588 -2416.223323 -442.574638
2296.346031 -2416.222986 -442.574177
2296.345495 -2416.223705 -442.573033
2296.344437 -2416.224716 -442.573008
2296.344247 -2416.224603 -442.574606
2296.345365 -2416.223881 -442.575156
2296.344933 -2416.224441 -442.574334
2296.345336 -2416.224337 -442.572814
2296.346332 -2416.223167 -442.574034
2296.345697 -2416.223613 -442.574894
2296.345011 -2416.224543 -442.573371
2296.345716 -2416.223563 -442.575064
2296.344876 -2416.224265 -442.575593
2296.345526 -2416.223942 -442.573988
2296.345497 -2416.223842 -442.574679
2296.344772 -2416.224968 -442.572295
2296.34486 -2416.224261 -442.575698
2296.344306 -2416.224863 -442.575698
2296.346906 -2416.222915 -442.574835
2296.34517 -2416.224548 -442.574927
2296.346407 -2416.223317 -442.575231
2296.345962 -2416.223665 -442.575636
2296.346078 -2416.223726 -442.574705
2296.346288 -2416.223491 -442.574897
2296.345182 -2416.22426 -442.576438
2296.346371 -2416.222862 -442.577903
2296.345119 -2416.224381 -442.576101
2296.345522 -2416.224148 -442.575283
2296.346094 -2416.223499 -442.575858
2296.345887 -2416.223487 -442.576996
2296.345492 -2416.223731 -442.575309
2296.346377 -2416.223053 -442.574426
2296.345875 -2416.223159 -442.576445
2296.345135 -2416.224226 -442.574461
2296.344935 -2416.224128 -442.57562
2296.346199 -2416.222736 -442.57467
2296.345572 -2416.22332 -442.574737
2296.345137 -2416.223433 -442.576376
2296.347275 -2416.221574 -442.575432
2296.34539 -2416.223122 -442.574358
2296.344697 -2416.223625 -442.575207
2296.344472 -2416.223954 -442.574582
2296.344182 -2416.224364 -442.573849
2296.344408 -2416.223582 -442.574537
2296.344451 -2416.223374 -442.575454
2296.344096 -2416.223942 -442.574189
2296.346508 -2416.221686 -442.573993
2296.345261 -2416.222574 -442.575615
2296.345771 -2416.222047 -442.575848
2296.345592 -2416.222545 -442.574058
2296.345766 -2416.221821 -442.577106
2296.345657 -2416.222045 -442.576449
2296.344948 -2416.222835 -442.575816
2296.34512 -2416.222797 -442.575131
2296.345604 -2416.221872 -442.577665
2296.346143 -2416.221374 -442.577589
2296.344948 -2416.222649 -442.576827
2296.345481 -2416.222157 -442.576748
2296.344602 -2416.22326 -442.575291
2296.34454 -2416.222984 -442.577119
2296.345406 -2416.222345 -442.576112
2296.345642 -2416.222145 -442.575977
2296.344658 -2416.222839 -442.577294
2296.345446 -2416.222527 -442.574915
2296.34578 -2416.221879 -442.576715
2296.344769 -2416.222649 -442.57776
2296.34551 -2416.222026 -442.577311
2296.344764 -2416.2231 -442.575323
2296.34458 -2416.223107 -442.57624
2296.345457 -2416.22223 -442.576472
2296.344454 -2416.223542 -442.574518
2296.345897 -2416.221957 -442.575681
2296.345203 -2416.222369 -442.577039
2296.345216 -2416.223061 -442.573186
2296.344868 -2416.223275 -442.573829
2296.346184 -2416.222352 -442.574441
2296.345276 -2416.223173 -442.574673
2296.346234 -2416.222246 -442.574762
2296.345973 -2416.222298 -442.575832
2296.344942 -2416.223409 -442.575114
2296.344178 -2416.224095 -442.575333
2296.345231 -2416.223221 -442.57464
2296.345961 -2416.222538 -442.574584
2296.345624 -2416.222779 -442.575018
2296.345695 -2416.222648 -442.575773
2296.346208 -2416.222773 -442.574422
2296.346379 -2416.222508 -442.574981
2296.346405 -2416.222521 -442.574777
2296.345311 -2416.223492 -442.575153
2296.345121 -2416.223861 -442.57412
2296.345204 -2416.223586 -442.575197
2296.345773 -2416.223337 -442.576006
2296.345188 -2416.223889 -442.576027
2296.34523 -2416.223567 -442.57757
2296.345844 -2416.222748 -442.578856
2296.346163 -2416.222708 -442.577417
2296.346782 -2416.222034 -442.577886
2296.345583 -2416.222953 -442.579088
2296.345985 -2416.223117 -442.576106
2296.345122 -2416.223884 -442.576398
2296.345185 -2416.223458 -442.578391
2296.34463 -2416.224151 -442.577494
2296.34574 -2416.223421 -442.575716
2296.346499 -2416.222469 -442.576974
2296.345777 -2416.222898 -442.578378
2296.346024 -2416.223034 -442.576356
2296.345743 -2416.223195 -442.576936
2296.345985 -2416.222841 -442.577615
2296.346057 -2416.222802 -442.577453
2296.345645 -2416.22329 -442.57693
2296.345715 -2416.223436 -442.575765
2296.345738 -2416.223407 -442.575804
2296.346008 -2416.223135 -442.57589
2296.345656 -2416.22348 -442.575832
2296.345094 -2416.223723 -442.577419
2296.343604 -2416.225587 -442.574974
2296.345415 -2416.223305 -442.578038
2296.34556 -2416.223392 -442.57681
2296.344775 -2416.224111 -442.576959
2296.346209 -2416.222805 -442.576647
2296.346609 -2416.222154 -442.577721
2296.34556 -2416.222882 -442.577189
2296.344891 -2416.223766 -442.575833
2296.345087 -2416.223503 -442.576255
2296.345391 -2416.223125 -442.576737
2296.345952 -2416.222386 -442.577865
2296.345209 -2416.223227 -442.577128
2296.345268 -2416.223295 -442.576449
2296.345391 -2416.223096 -442.576901
2296.345363 -2416.223354 -442.575635
2296.344667 -2416.223976 -442.575847
2296.343568 -2416.224358 -442.577066
2296.344058 -2416.223835 -442.577378
2296.345261 -2416.222823 -442.576656
2296.344659 -2416.22326 -442.577399
2296.345625 -2416.222318 -442.577526
2296.344017 -2416.223879 -442.577352
2296.345465 -2416.222681 -442.576377
2296.344099 -2416.223778 -442.577477
2296.345104 -2416.22295 -442.576777
2296.345228 -2416.222796 -442.576975
2296.345079 -2416.222906 -442.577149
2296.343902 -2416.223629 -442.576906
2296.345426 -2416.222171 -442.576961
2296.345288 -2416.222376 -442.576555
2296.343668 -2416.223734 -442.577548
2296.344442 -2416.222824 -442.578499
2296.34525 -2416.22226 -442.57739
2296.344587 -2416.222874 -442.577472
2296.345202 -2416.222161 -442.578178
2296.343464 -2416.223758 -442.57847
2296.343997 -2416.223357 -442.577898
2296.343102 -2416.223986 -442.579108
2296.344291 -2416.22316 -442.577449
2296.344767 -2416.22255 -442.578309
2296.345683 -2416.221584 -442.57883
2296.345663 -2416.221823 -442.57763
2296.344592 -2416.222891 -442.577355
2296.345287 -2416.222368 -442.576604
2296.344804 -2416.222627 -442.577694
2296.343754 -2416.223752 -442.577007
2296.343137 -2416.224494 -442.576156
2296.344433 -2416.222826 -442.578534
2296.344873 -2416.222804 -442.57637
2296.344475 -2416.222813 -442.578391
2296.343577 -2416.223935 -442.576922
2296.345288 -2416.222047 -442.578352
2296.343972 -2416.224146 -442.576124
2296.34538 -2416.222652 -442.576978
2296.344394 -2416.223578 -442.577035
2296.344328 -2416.223449 -442.57808
2296.343737 -2416.224176 -442.57718
2296.343757 -2416.223813 -442.579059
2296.343999 -2416.22417 -442.576254
2296.345208 -2416.223341 -442.576514
2296.345517 -2416.222956 -442.577011
2296.345071 -2416.222808 -442.580135
2296.345936 -2416.222176 -442.579097
2296.344559 -2416.22391 -442.576767
2296.345298 -2416.223067 -442.577947
2296.345374 -2416.223359 -442.577957
2296.343914 -2416.224788 -442.577726
2296.343872 -2416.224973 -442.576938
2296.345168 -2416.223667 -442.577344
2296.345589 -2416.223316 -442.577074
2296.345598 -2416.222989 -442.578811
2296.345987 -2416.222865 -442.577472
2296.345352 -2416.223552 -442.577015
2296.344707 -2416.224327 -442.576135
2296.344149 -2416.224927 -442.575749
2296.342995 -2416.226121 -442.575219
2296.343662 -2416.225076 -442.577463
2296.344761 -2416.224107 -442.577054
2296.344837 -2416.224006 -442.577212
2296.344379 -2416.224586 -442.576417
2296.344807 -2416.223985 -442.577481
2296.345063 -2416.223707 -442.577668
2296.343728 -2416.224572 -442.579871
2296.343953 -2416.224891 -442.576966
2296.344157 -2416.224905 -442.575827
2296.344093 -2416.224987 -442.575716
2296.344494 -2416.224408 -442.576796
2296.344293 -2416.224776 -442.575827
2296.343884 -2416.224954 -442.576978
2296.345092 -2416.223587 -442.578177
2296.343224 -2416.225778 -442.575906
2296.344466 -2416.224522 -442.576317
2296.345154 -2416.223664 -442.577432
2296.343968 -2416.22492 -442.576728
2296.343822 -2416.224916 -442.577507
2296.345316 -2416.223584 -442.577025
2296.344801 -2416.224094 -442.576917
2296.343896 -2416.224737 -442.578102
2296.345288 -2416.223742 -442.57631
2296.344401 -2416.224041 -442.57688
2296.343666 -2416.224729 -442.57693
2296.342897 -2416.225446 -442.577007
2296.345114 -2416.223268 -442.577395
2296.342969 -2416.225153 -442.577836
2296.343923 -2416.223806 -442.578235
2296.343218 -2416.224588 -442.577624
2296.343748 -2416.223898 -442.578641
2296.343141 -2416.224524 -442.578371
2296.34226 -2416.225298 -442.576318
2296.343176 -2416.224353 -442.576719
2296.343464 -2416.223968 -442.577329
2296.343887 -2416.223352 -442.578497
2296.344839 -2416.222345 -442.579053
2296.343691 -2416.223511 -442.578644
2296.344071 -2416.22308 -442.579024
2296.34468 -2416.222477 -442.579159
2296.344135 -2416.223123 -442.578458
2296.342404 -2416.224885 -442.577824
2296.342059 -2416.225397 -442.57682
2296.34339 -2416.223834 -442.576043
2296.343282 -2416.224014 -442.575618
2296.343528 -2416.223664 -442.576254
2296.344755 -2416.222393 -442.576829
2296.343225 -2416.22386 -442.576756
2296.344745 -2416.22223 -442.577766
2296.343887 -2416.223186 -442.576997
2296.343184 -2416.223572 -442.578539
2296.342536 -2416.224249 -442.578205
2296.342473 -2416.224456 -442.577407
2296.34376 -2416.223739 -442.577043
2296.342584 -2416.225076 -442.575845
2296.343048 -2416.224504 -442.576562
2296.34252 -2416.224913 -442.577068
2296.343475 -2416.223715 -442.578653
2296.344084 -2416.222942 -442.579714
2296.343376 -2416.223682 -442.579345
2296.344366 -2416.222898 -442.578489
2296.344096 -2416.223439 -442.576937
2296.343183 -2416.224218 -442.577813
2296.342097 -2416.225498 -442.578473
2296.342083 -2416.225493 -442.578574
2296.342459 -2416.225202 -442.578211
2296.342583 -2416.224925 -442.579082
2296.344003 -2416.223782 -442.577948
2296.344299 -2416.223534 -442.578162
2296.344931 -2416.223213 -442.57865
2296.344412 -2416.224022 -442.576919
2296.342751 -2416.225585 -442.577009
2296.343066 -2416.225325 -442.576793
2296.342454 -2416.225568 -442.57864
2296.34349 -2416.224851 -442.577185
2296.342746 -2416.225592 -442.576996
2296.34221 -2416.226106 -442.576969
2296.342557 -2416.225504 -442.578458
2296.342657 -2416.226332 -442.575823
2296.343196 -2416.22582 -442.575819
2296.344339 -2416.224432 -442.577468
2296.342887 -2416.225894 -442.57702
2296.342776 -2416.225934 -442.577376
2296.34277 -2416.225892 -442.577637
2296.342757 -2416.225931 -442.577493
2296.343184 -2416.225627 -442.576937
2296.342834 -2416.225863 -442.577465
2296.343779 -2416.224699 -442.578912
2296.342873 -2416.225995 -442.576541
2296.343155 -2416.225564 -442.57743
2296.342835 -2416.225415 -442.579906
2296.343261 -2416.225029 -442.579802
2296.34357 -2416.224929 -442.578744
2296.342102 -2416.226257 -442.579112
2296.342058 -2416.226332 -442.578929
2296.342991 -2416.225598 -442.578097
2296.342504 -2416.225995 -442.578455
2296.342022 -2416.226443 -442.578511
2296.342675 -2416.225812 -442.578565
2296.34223 -2416.226346 -442.57796
2296.342201 -2416.226513 -442.577198
2296.343292 -2416.224968 -442.579974
2296.343117 -2416.225457 -442.578211
2296.342672 -2416.225792 -442.578692
2296.344117 -2416.224463 -442.57845
2296.34171 -2416.226285 -442.578589
2296.341634 -2416.226554 -442.577514
2296.343198 -2416.22505 -442.577612
2296.34209 -2416.226229 -442.576924
2296.341124 -2416.227171 -442.576794
2296.342331 -2416.225699 -442.57616
2296.342789 -2416.225171 -442.576663
2296.342118 -2416.225655 -442.577505
2296.341668 -2416.226095 -442.577443
2296.343239 -2416.224604 -442.577428
2296.342071 -2416.225527 -442.578446
2296.342242 -2416.225518 -442.577612
2296.341328 -2416.226186 -442.578702
2296.341611 -2416.225649 -442.580167
2296.342687 -2416.224526 -442.580718
2296.341706 -2416.225804 -442.578831
2296.34226 -2416.225357 -442.578394
2296.341429 -2416.226125 -442.578516
2296.341298 -2416.226292 -442.578284
2296.34126 -2416.226069 -442.577294
2296.342181 -2416.225056 -442.578047
2296.341509 -2416.22551 -442.579053
2296.341712 -2416.225488 -442.578124
2296.342024 -2416.225546 -442.576189
2296.341144 -2416.226196 -442.577201
2296.341712 -2416.225933 -442.57569
2296.341178 -2416.226087 -442.577624
2296.34164 -2416.225778 -442.576914
2296.341873 -2416.225441 -442.57754
2296.342247 -2416.225181 -442.577019
2296.341877 -2416.22525 -442.578563
2296.342719 -2416.224464 -442.578483
2296.34281 -2416.224483 -442.577912
2296.342746 -2416.224117 -442.580238
2296.34064 -2416.226484 -442.578244
2296.34144 -2416.225777 -442.577951
2296.342401 -2416.224863 -442.577955
2296.340758 -2416.22642 -442.577979
2296.341352 -2416.225639 -442.579165
2296.341981 -2416.225155 -442.578541
2296.34039 -2416.226678 -442.578481
2296.339562 -2416.227443 -442.578603
2296.340186 -2416.226665 -442.579616
2296.340768 -2416.226431 -442.57787
2296.341586 -2416.225632 -442.57799
2296.34148 -2416.226031 -442.576356
2296.340874 -2416.226477 -442.577069
2296.341731 -2416.225953 -442.577888
2296.340269 -2416.227538 -442.57682
2296.338741 -2416.228961 -442.576981
2296.340008 -2416.22768 -442.577398
2296.340697 -2416.227017 -442.57744
2296.341067 -2416.226783 -442.576802
2296.341695 -2416.226 -442.577818
2296.340859 -2416.2268 -442.577785
2296.342137 -2416.225697 -442.577181
2296.340719 -2416.227205 -442.576307
2296.340375 -2416.227907 -442.576662
2296.341642 -2416.226541 -442.57754
2296.342708 -2416.225566 -442.577338
2296.34103 -2416.227351 -442.576292
2296.340514 -2416.22785 -442.576245
2296.340835 -2416.22735 -442.577313
2296.341781 -2416.226349 -442.577871
2296.341549 -2416.2265 -442.578246
2296.342901 -2416.225378 -442.577359
2296.341313 -2416.226474 -442.579616
2296.341469 -2416.226355 -442.579457
2296.341796 -2416.226095 -442.579177
2296.340604 -2416.227133 -442.579698
2296.340825 -2416.226892 -442.579865
2296.340424 -2416.227542 -442.578399
2296.339726 -2416.228197 -442.578443
2296.340377 -2416.227932 -442.576512
2296.340863 -2416.227502 -442.576337
2296.34076 -2416.227877 -442.577225
2296.34004 -2416.228642 -442.576791
2296.340646 -2416.228043 -442.576919
2296.341169 -2416.227656 -442.57631
2296.341098 -2416.227698 -442.576455
2296.341468 -2416.227239 -442.577043
2296.341365 -2416.227359 -442.576918
2296.341393 -2416.227286 -442.577174
2296.340667 -2416.228007 -442.577
2296.341399 -2416.227453 -442.57623
2296.341332 -2416.227362 -442.577074
2296.339912 -2416.228801 -442.576585
2296.342108 -2416.226642 -442.576977
2296.339295 -2416.22931 -442.577004
2296.339675 -2416.228942 -442.577047
2296.340655 -2416.228028 -442.576953
2296.341672 -2416.226979 -442.577399
2296.341406 -2416.227317 -442.576937
2296.339649 -2416.228715 -442.578038
2296.340512 -2416.227939 -442.575775
2296.340251 -2416.22806 -442.576469
2296.340498 -2416.227702 -442.577142
2296.341459 -2416.226521 -442.578604
2296.340444 -2416.227581 -442.578083
2296.339779 -2416.228101 -442.578693
2296.340671 -2416.227257 -442.578673
2296.339779 -2416.227693 -442.578516
2296.340767 -2416.226868 -442.577891
2296.340246 -2416.227413 -442.577621
2296.339941 -2416.228111 -442.575398
2296.339938 -2416.227969 -442.576185
2296.341671 -2416.22649 -442.575268
2296.341446 -2416.226308 -442.577426
2296.340101 -2416.227674 -442.576947
2296.340986 -2416.226866 -442.576769
2296.339747 -2416.227785 -442.578181
2296.34086 -2416.227254 -442.575307
2296.339372 -2416.228372 -442.57692
2296.34089 -2416.226924 -442.57695
2296.340378 -2416.227444 -442.576766
2296.3408 -2416.226645 -442.576536
2296.339712 -2416.22753 -442.577349
2296.339248 -2416.22807 -442.57681
2296.340028 -2416.227363 -442.576624
2296.340092 -2416.227281 -442.576738
2296.340303 -2416.227056 -442.576869
2296.341473 -2416.225557 -442.578984
2296.339735 -2416.227419 -442.577838
2296.340035 -2416.227375 -442.576519
2296.339627 -2416.227822 -442.576199
2296.339598 -2416.227817 -442.576373
2296.339721 -2416.227742 -442.576144
2296.342127 -2416.225229 -442.577379
2296.340911 -2416.226481 -442.576856
2296.340504 -2416.226906 -442.576649
2296.338928 -2416.228471 -442.576281
2296.339627 -2416.227822 -442.576199
2296.339946 -2416.227194 -442.577968
2296.34023 -2416.227027 -442.577407
2296.339607 -2416.227595 -442.577538
2296.339709 -2416.227737 -442.576233
2296.339378 -2416.227931 -442.576897
2296.340241 -2416.227378 -442.575816
2296.340129 -2416.227628 -442.577056
2296.339522 -2416.228017 -442.578083
2296.34166 -2416.226181 -442.577008
2296.34115 -2416.226598 -442.57738
2296.338863 -2416.229006 -442.576101
2296.339847 -2416.22827 -442.575014
2296.338629 -2416.22909 -442.576854
2296.339628 -2416.228422 -442.575704
2296.340134 -2416.228476 -442.5748
2296.340831 -2416.227332 -442.577435
2296.340534 -2416.227841 -442.576191
2296.340067 -2416.228056 -442.577447
2296.341117 -2416.227134 -442.577032
2296.340378 -2416.227876 -442.576811
2296.339352 -2416.229348 -442.576505
2296.340534 -2416.228179 -442.576753
2296.339822 -2416.228825 -442.576919
2296.339822 -2416.228825 -442.576919
2296.338774 -2416.229679 -442.577697
2296.340114 -2416.228769 -442.575713
2296.340185 -2416.228703 -442.575699
2296.340853 -2416.228239 -442.574769
2296.340006 -2416.228767 -442.576281
2296.339044 -2416.22938 -442.577929
2296.339969 -2416.22891 -442.575694
2296.339049 -2416.229748 -442.575888
2296.339795 -2416.228884 -442.57674
2296.340878 -2416.227767 -442.577217
2296.339891 -2416.228755 -442.576943
2296.339267 -2416.229354 -442.576915
2296.340347 -2416.228436 -442.576317
2296.340733 -2416.22839 -442.574566
2296.339565 -2416.229536 -442.574374
2296.340864 -2416.228236 -442.574731
2296.340132 -2416.229116 -442.573727
2296.339891 -2416.229176 -442.574649
2296.339896 -2416.228993 -442.57562
2296.34006 -2416.229022 -442.57461
2296.340156 -2416.22859 -442.576472
2296.339381 -2416.228978 -442.578376
2296.339116 -2416.229454 -442.577152
2296.33946 -2416.229064 -442.577496
2296.340001 -2416.228326 -442.576313
2296.340773 -2416.227405 -442.577338
2296.339476 -2416.228715 -442.576914
2296.340289 -2416.227927 -442.576996
2296.339308 -2416.228964 -442.576428
2296.340302 -2416.228077 -442.576114
2296.340747 -2416.227973 -442.574368
2296.339701 -2416.228248 -442.575895
2296.338374 -2416.229353 -442.576745
2296.339172 -2416.228679 -442.576285
2296.339546 -2416.22844 -442.575646
2296.3412 -2416.22687 -442.575637
2296.339729 -2416.22849 -442.574427
2296.3393 -2416.228422 -442.574616
2296.338173 -2416.229164 -442.576419
2296.340065 -2416.22725 -442.577049
2296.339975 -2416.227388 -442.576765
2296.338787 -2416.228467 -442.577032
2296.33894 -2416.228637 -442.575307
2296.338432 -2416.22884 -442.576844
2296.339286 -2416.227855 -442.577786
2296.340014 -2416.22731 -442.576985
2296.340398 -2416.226878 -442.577346
2296.339405 -2416.228201 -442.575279
2296.340099 -2416.227267 -442.576774
