ply
format ascii 1.0
element vertex 1306
property float x
property float y
property float z
end_header
2296.360928 -2416.232294 -442.640792
2296.361328 -2416.23207 -442.639938
2296.360013 -2416.232944 -442.639582
2296.360588 -2416.232074 -442.641348
2296.361521 -2416.231254 -442.640987
2296.360468 -2416.232256 -442.640981
2296.361965 -2416.230751 -442.641427
2296.360805 -2416.232278 -442.639108
2296.360379 -2416.232391 -442.640704
2296.360521 -2416.232093 -442.641594
2296.362123 -2416.230897 -442.639812
2296.361105 -2416.231763 -442.64037
2296.36051 -2416.232258 -442.640754
2296.361095 -2416.231418 -442.642301
2296.360899 -2416.231889 -442.640745
2296.360517 -2416.232254 -442.640736
2296.359903 -2416.233099 -442.63931
2296.360928 -2416.232012 -442.639926
2296.361177 -2416.231971 -442.638862
2296.36054 -2416.232371 -442.639974
2296.361571 -2416.23147 -442.63955
2296.359851 -2416.233029 -442.63996
2296.360113 -2416.232472 -442.641644
2296.361821 -2416.230737 -442.642255
2296.360339 -2416.232491 -442.640368
2296.360694 -2416.232237 -442.639912
2296.362765 -2416.230407 -442.639155
2296.362111 -2416.231547 -442.638729
2296.360134 -2416.233486 -442.638404
2296.361486 -2416.23206 -442.639175
2296.362083 -2416.231308 -442.640181
2296.361259 -2416.232261 -442.639251
2296.362491 -2416.23107 -442.639359
2296.360974 -2416.232427 -442.639823
2296.360092 -2416.23374 -442.639636
2296.361597 -2416.232289 -442.639748
2296.362125 -2416.231701 -442.64022
2296.362498 -2416.231364 -442.640125
2296.36121 -2416.232243 -442.642009
2296.362073 -2416.231485 -442.641667
2296.362054 -2416.231766 -442.640235
2296.360999 -2416.232837 -442.639858
2296.360707 -2416.23278 -442.641682
2296.360663 -2416.233123 -442.640043
2296.360362 -2416.233381 -442.640196
2296.361193 -2416.232609 -442.640094
2296.361706 -2416.23216 -442.639885
2296.362183 -2416.231566 -442.640657
2296.363013 -2416.231033 -442.639259
2296.360751 -2416.233203 -442.639147
2296.360162 -2416.233942 -442.638171
2296.361071 -2416.233222 -442.637383
2296.361515 -2416.232343 -442.639881
2296.36228 -2416.231576 -442.640099
2296.362143 -2416.23163 -442.640516
2296.361293 -2416.232276 -442.641395
2296.36171 -2416.232274 -442.639247
2296.361833 -2416.231981 -442.640204
2296.360592 -2416.233303 -442.639428
2296.360988 -2416.23293 -442.639409
2296.361368 -2416.232257 -442.641107
2296.362132 -2416.231689 -442.640248
2296.361127 -2416.232832 -442.639223
2296.361342 -2416.232561 -442.639588
2296.361985 -2416.231929 -442.639702
2296.362508 -2416.231543 -442.639095
2296.361605 -2416.232405 -442.639073
2296.361182 -2416.233082 -442.637576
2296.360502 -2416.23379 -442.637239
2296.360459 -2416.233576 -442.638632
2296.361264 -2416.233258 -442.636187
2296.361507 -2416.232707 -442.637936
2296.361092 -2416.232614 -442.640595
2296.36167 -2416.232166 -442.640041
2296.362313 -2416.231612 -442.63973
2296.361624 -2416.232244 -442.639857
2296.36113 -2416.232728 -442.639774
2296.361571 -2416.232372 -442.639432
2296.361466 -2416.232113 -442.64139
2296.360881 -2416.232966 -442.639768
2296.361457 -2416.232519 -442.639223
2296.361367 -2416.232651 -442.638968
2296.362108 -2416.231853 -442.638816
2296.361306 -2416.232495 -442.637731
2296.36171 -2416.232069 -442.63796
2296.361022 -2416.232658 -442.638314
2296.36161 -2416.232093 -442.63835
2296.360943 -2416.232541 -442.639363
2296.361365 -2416.232281 -442.638595
2296.361184 -2416.232903 -442.636133
2296.361939 -2416.231763 -442.638444
2296.360844 -2416.232663 -442.639209
2296.360395 -2416.232859 -442.638067
2296.360459 -2416.233346 -442.635074
2296.36124 -2416.2321 -442.637825
2296.360993 -2416.232336 -442.637819
2296.360551 -2416.232767 -442.637762
2296.360063 -2416.233305 -442.637357
2296.361033 -2416.232208 -442.63831
2296.361065 -2416.232441 -442.636872
2296.360734 -2416.232609 -442.637672
2296.361081 -2416.231694 -442.64087
2296.360936 -2416.231848 -442.640783
2296.36187 -2416.231022 -442.640438
2296.361367 -2416.231722 -442.639227
2296.361814 -2416.231215 -442.639679
2296.361597 -2416.231209 -442.640841
2296.361627 -2416.231653 -442.638261
2296.360958 -2416.232281 -442.638301
2296.360006 -2416.233054 -442.639022
2296.361666 -2416.231525 -442.638753
2296.361565 -2416.231803 -442.637762
2296.361074 -2416.232098 -442.638699
2296.360187 -2416.232933 -442.638738
2296.361421 -2416.231517 -442.640069
2296.362145 -2416.231079 -442.638705
2296.362383 -2416.2311 -442.637357
2296.360717 -2416.232375 -442.63904
2296.359897 -2416.233509 -442.639507
2296.360902 -2416.232599 -442.639257
2296.36087 -2416.232385 -442.640592
2296.359954 -2416.233476 -442.639389
2296.360442 -2416.233058 -442.639139
2296.361231 -2416.232147 -442.640018
2296.362015 -2416.23134 -442.640356
2296.361434 -2416.232067 -442.639405
2296.361963 -2416.231383 -442.640392
2296.36182 -2416.231228 -442.641982
2296.361725 -2416.231883 -442.638901
2296.361241 -2416.232143 -442.639989
2296.360501 -2416.232688 -442.640852
2296.361033 -2416.232484 -442.639206
2296.361588 -2416.231845 -442.639813
2296.361062 -2416.232879 -442.636905
2296.360681 -2416.232963 -442.638417
2296.361134 -2416.23282 -442.639254
2296.361139 -2416.232812 -442.639272
2296.361748 -2416.232174 -442.639596
2296.362163 -2416.231825 -442.639346
2296.361918 -2416.2321 -442.639116
2296.361157 -2416.232904 -442.638675
2296.360792 -2416.233254 -442.63866
2296.360892 -2416.233047 -442.639267
2296.361464 -2416.232337 -442.64018
2296.361012 -2416.232904 -442.639426
2296.361693 -2416.23214 -442.640065
2296.362684 -2416.231347 -442.63925
2296.361004 -2416.233298 -442.637321
2296.360572 -2416.233377 -442.639128
2296.361779 -2416.232015 -442.640301
2296.360754 -2416.233296 -442.638625
2296.360856 -2416.232971 -442.639868
2296.361034 -2416.23314 -442.638024
2296.361411 -2416.232865 -442.63757
2296.361872 -2416.232085 -442.639435
2296.361495 -2416.232473 -442.639278
2296.361108 -2416.232773 -442.639642
2296.361198 -2416.232666 -442.639763
2296.362273 -2416.231588 -442.64007
2296.361873 -2416.232158 -442.639031
2296.362368 -2416.231645 -442.639264
2296.361 -2416.232767 -442.640236
2296.360809 -2416.233134 -442.639227
2296.361408 -2416.232402 -442.640115
2296.361639 -2416.232157 -442.640254
2296.360931 -2416.232988 -442.639393
2296.361368 -2416.232454 -442.640038
2296.361338 -2416.232358 -442.640718
2296.360482 -2416.23296 -442.641873
2296.361653 -2416.232006 -442.641001
2296.361441 -2416.232275 -442.640637
2296.361471 -2416.232236 -442.640043
2296.360861 -2416.232836 -442.638176
2296.36125 -2416.232551 -442.637714
2296.361814 -2416.23174 -442.639217
2296.361352 -2416.2323 -442.638555
2296.361973 -2416.231646 -442.638905
2296.361496 -2416.232044 -442.639208
2296.361771 -2416.232253 -442.636641
2296.361083 -2416.23257 -442.638481
2296.361197 -2416.232228 -442.639752
2296.360698 -2416.233028 -442.637975
2296.360802 -2416.232751 -442.638951
2296.361412 -2416.231709 -442.641473
2296.361149 -2416.232429 -442.638905
2296.362227 -2416.231347 -442.639216
2296.362206 -2416.231084 -442.640761
2296.362055 -2416.231135 -442.640619
2296.361845 -2416.231053 -442.640405
2296.361446 -2416.231329 -442.640966
2296.362238 -2416.230732 -442.640114
2296.361213 -2416.232096 -442.637986
2296.360275 -2416.232475 -442.640789
2296.361936 -2416.231058 -442.639904
2296.361338 -2416.231589 -442.640104
2296.361233 -2416.231805 -442.639471
2296.360239 -2416.232445 -442.641134
2296.361554 -2416.23139 -442.640073
2296.361559 -2416.231613 -442.638831
2296.360116 -2416.232865 -442.639479
2296.36097 -2416.232032 -442.639602
2296.361335 -2416.231564 -442.640254
2296.362031 -2416.231127 -442.639037
2296.361421 -2416.231712 -442.639002
2296.360134 -2416.23313 -442.637939
2296.361994 -2416.231625 -442.63891
2296.361074 -2416.232501 -442.638902
2296.361094 -2416.232284 -442.639981
2296.361819 -2416.231732 -442.639235
2296.361879 -2416.231462 -442.640393
2296.362098 -2416.231139 -442.641023
2296.361136 -2416.232351 -442.639398
2296.362399 -2416.230983 -442.640313
2296.362363 -2416.230946 -442.6407
2296.36202 -2416.231325 -442.640414
2296.362634 -2416.230856 -442.639789
2296.361471 -2416.232132 -442.638851
2296.361612 -2416.232383 -442.639158
2296.361044 -2416.233114 -442.63812
2296.361563 -2416.232388 -442.639384
2296.361782 -2416.23201 -442.640315
2296.361521 -2416.232527 -442.638842
2296.36241 -2416.23169 -442.638803
2296.361203 -2416.232732 -442.639379
2296.361083 -2416.233217 -442.639753
2296.36125 -2416.232812 -442.641097
2296.361798 -2416.2324 -442.640505
2296.360786 -2416.233609 -442.639156
2296.362381 -2416.231805 -442.640729
2296.362333 -2416.231683 -442.641645
2296.361491 -2416.232511 -442.64149
2296.36207 -2416.232064 -442.640931
2296.362472 -2416.231886 -442.639815
2296.36169 -2416.23287 -442.638499
2296.359857 -2416.234699 -442.638022
2296.363546 -2416.230785 -442.640255
2296.362107 -2416.232295 -442.639472
2296.362598 -2416.231852 -442.639348
2296.361687 -2416.232676 -442.639572
2296.362336 -2416.231783 -442.641085
2296.36175 -2416.232722 -442.638991
2296.361954 -2416.23275 -442.637781
2296.360739 -2416.233722 -442.638781
2296.362197 -2416.232362 -442.638637
2296.36164 -2416.232864 -442.638791
2296.360145 -2416.234074 -442.637535
2296.361434 -2416.232445 -442.639743
2296.362442 -2416.231379 -442.640332
2296.361366 -2416.232656 -442.638946
2296.361516 -2416.232471 -442.639176
2296.360726 -2416.232858 -442.641162
2296.362217 -2416.231529 -442.640683
2296.362182 -2416.23175 -442.639655
2296.362086 -2416.232151 -442.637965
2296.360977 -2416.232424 -442.639827
2296.36136 -2416.232287 -442.638585
2296.361988 -2416.231621 -442.638965
2296.362114 -2416.231542 -442.63874
2296.361417 -2416.232073 -442.639462
2296.361525 -2416.23233 -442.637497
2296.360549 -2416.233235 -442.637616
2296.361567 -2416.23208 -442.638645
2296.362327 -2416.231556 -442.637563
2296.363127 -2416.230394 -442.639756
2296.36146 -2416.231817 -442.640633
2296.362211 -2416.231078 -442.64077
2296.361733 -2416.231476 -442.641076
2296.361211 -2416.232405 -442.638719
2296.361117 -2416.232518 -442.638581
2296.362211 -2416.231277 -442.639684
2296.361427 -2416.23193 -442.640189
2296.362371 -2416.23124 -442.639055
2296.361924 -2416.231787 -442.638392
2296.363645 -2416.230562 -442.636148
2296.362213 -2416.231419 -442.638897
2296.362215 -2416.231466 -442.637994
2296.361729 -2416.231702 -442.637465
2296.362253 -2416.231178 -442.637604
2296.362174 -2416.231497 -442.636273
2296.363232 -2416.230431 -442.636604
2296.362648 -2416.231105 -442.635953
2296.362162 -2416.231317 -442.637317
2296.362077 -2416.231335 -442.637659
2296.361131 -2416.232347 -442.637041
2296.361929 -2416.231336 -442.638426
2296.362619 -2416.230722 -442.638196
2296.362071 -2416.231283 -442.637975
2296.361314 -2416.231916 -442.638446
2296.360966 -2416.232618 -442.636418
2296.361971 -2416.2322 -442.635891
2296.36309 -2416.230994 -442.636671
2296.36309 -2416.230595 -442.638848
2296.363511 -2416.230391 -442.637777
2296.362945 -2416.230747 -442.638771
2296.362831 -2416.230797 -442.63909
2296.362736 -2416.230859 -442.639241
2296.361976 -2416.231668 -442.638769
2296.362862 -2416.231033 -442.637643
2296.362256 -2416.23168 -442.637246
2296.362912 -2416.231196 -442.636492
2296.362864 -2416.231332 -442.635995
2296.36278 -2416.23163 -442.634806
2296.362663 -2416.23151 -442.636068
2296.362862 -2416.231077 -442.637403
2296.363016 -2416.231568 -442.636324
2296.364123 -2416.230451 -442.636682
2296.363091 -2416.231542 -442.636079
2296.362668 -2416.232139 -442.635012
2296.363053 -2416.231256 -442.637835
2296.362719 -2416.231945 -442.635807
2296.362845 -2416.231381 -442.638232
2296.363288 -2416.231098 -442.637479
2296.362676 -2416.231873 -442.636422
2296.362468 -2416.231655 -442.638695
2296.363407 -2416.231217 -442.636209
2296.363371 -2416.230991 -442.637632
2296.36271 -2416.231622 -442.637616
2296.361979 -2416.232469 -442.636784
2296.362758 -2416.232028 -442.635151
2296.362657 -2416.231952 -442.636094
2296.363668 -2416.231148 -442.635233
2296.363773 -2416.231348 -442.633601
2296.36439 -2416.230646 -442.634226
2296.363463 -2416.231462 -442.634586
2296.363355 -2416.2314 -442.635482
2296.362945 -2416.231937 -442.634677
2296.36295 -2416.232072 -442.63391
2296.363182 -2416.231568 -442.635458
2296.363356 -2416.231557 -442.634619
2296.363721 -2416.231042 -442.635535
2296.363781 -2416.230956 -442.635696
2296.363926 -2416.230494 -442.637462
2296.363335 -2416.231443 -442.635347
2296.36322 -2416.231297 -442.636747
2296.36219 -2416.232202 -442.63715
2296.363649 -2416.231185 -442.63513
2296.362757 -2416.232028 -442.635151
2296.363498 -2416.23149 -442.634246
2296.36376 -2416.231305 -442.633897
2296.363128 -2416.231623 -442.635439
2296.363377 -2416.23118 -442.63657
2296.363417 -2416.231264 -442.635904
2296.36506 -2416.230001 -442.634272
2296.363118 -2416.231625 -442.635487
2296.363605 -2416.231355 -442.634433
2296.362573 -2416.232249 -442.634903
2296.363313 -2416.231327 -442.636101
2296.363088 -2416.232028 -442.63344
2296.362907 -2416.232256 -442.633132
2296.363182 -2416.231713 -442.634673
2296.362992 -2416.231947 -442.634382
2296.36323 -2416.231719 -442.633751
2296.363685 -2416.230909 -442.634047
2296.363133 -2416.231484 -442.633774
2296.363234 -2416.231157 -442.635035
2296.364019 -2416.230218 -442.636083
2296.363576 -2416.230982 -442.634214
2296.363621 -2416.23091 -442.634376
2296.364329 -2416.230148 -442.634859
2296.36197 -2416.232365 -442.634997
2296.362481 -2416.231797 -442.635444
2296.364663 -2416.230004 -442.633914
2296.36381 -2416.230762 -442.634201
2296.363843 -2416.23076 -442.634042
2296.363161 -2416.231563 -442.633192
2296.36418 -2416.23041 -442.634206
2296.364289 -2416.230556 -442.632839
2296.363784 -2416.230569 -442.635387
2296.363009 -2416.231462 -442.634536
2296.363646 -2416.230613 -442.63587
2296.363294 -2416.230902 -442.636113
2296.36374 -2416.230812 -442.634291
2296.362838 -2416.23157 -442.634833
2296.362838 -2416.231913 -442.632962
2296.363174 -2416.231221 -442.634994
2296.363587 -2416.230635 -442.636052
2296.36319 -2416.231395 -442.63396
2296.362927 -2416.231504 -442.634734
2296.364521 -2416.230052 -442.634387
2296.364501 -2416.229936 -442.635127
2296.36375 -2416.230802 -442.634294
2296.363973 -2416.230774 -442.633289
2296.363662 -2416.230988 -442.633737
2296.362957 -2416.231544 -442.63436
2296.363797 -2416.230891 -442.633565
2296.364847 -2416.229972 -442.633134
2296.364227 -2416.230706 -442.632346
2296.362722 -2416.232247 -442.631738
2296.364523 -2416.230389 -442.632536
2296.364486 -2416.230365 -442.632863
2296.364204 -2416.230519 -442.633487
2296.364143 -2416.230322 -442.634873
2296.363577 -2416.231177 -442.633144
2296.365027 -2416.229957 -442.632915
2296.36412 -2416.231323 -442.631933
2296.363565 -2416.231473 -442.633993
2296.364349 -2416.230708 -442.634102
2296.363531 -2416.231381 -442.634673
2296.365196 -2416.229905 -442.634092
2296.364102 -2416.230884 -442.634421
2296.364799 -2416.230613 -442.632286
2296.364572 -2416.230217 -442.635629
2296.364313 -2416.230721 -442.634215
2296.364568 -2416.230667 -442.633187
2296.365247 -2416.230096 -442.632786
2296.364357 -2416.230937 -442.632811
2296.364631 -2416.230394 -442.634352
2296.363694 -2416.231991 -442.632901
2296.363856 -2416.231899 -442.632563
2296.364331 -2416.231357 -442.633053
2296.363643 -2416.232086 -442.632647
2296.363882 -2416.231516 -442.634522
2296.363437 -2416.232023 -442.634056
2296.365089 -2416.230365 -442.63454
2296.36312 -2416.232086 -442.635359
2296.365169 -2416.230167 -442.635206
2296.364055 -2416.231361 -442.634469
2296.364836 -2416.230445 -442.635415
2296.364559 -2416.230961 -442.634036
2296.363953 -2416.231187 -442.635942
2296.365415 -2416.230308 -442.633156
2296.365098 -2416.230656 -442.632907
2296.363802 -2416.231552 -442.634735
2296.36452 -2416.230977 -442.634154
2296.365519 -2416.229994 -442.63433
2296.365269 -2416.230285 -442.634042
2296.365539 -2416.230153 -442.633366
2296.363525 -2416.231636 -442.633313
2296.364873 -2416.230766 -442.631068
2296.364181 -2416.231095 -442.63286
2296.36411 -2416.231182 -442.632757
2296.364031 -2416.231369 -442.63214
2296.364196 -2416.231291 -442.631712
2296.364245 -2416.231044 -442.632808
2296.365127 -2416.229926 -442.634334
2296.365927 -2416.229397 -442.633073
2296.364608 -2416.230647 -442.63309
2296.365048 -2416.230005 -442.634312
2296.365001 -2416.230138 -442.633834
2296.364582 -2416.230467 -442.634209
2296.363488 -2416.230988 -442.634635
2296.364194 -2416.230374 -442.634327
2296.364563 -2416.230515 -442.631641
2296.364618 -2416.230517 -442.631347
2296.365428 -2416.229486 -442.63277
2296.364333 -2416.230269 -442.634179
2296.36626 -2416.228932 -442.631478
2296.365198 -2416.230057 -442.630849
2296.365697 -2416.229417 -442.631752
2296.364713 -2416.230178 -442.632703
2296.364097 -2416.230818 -442.632405
2296.365418 -2416.229565 -442.632396
2296.364314 -2416.230699 -442.631931
2296.364255 -2416.230444 -442.633628
2296.364684 -2416.230037 -442.633628
2296.364716 -2416.22995 -442.633934
2296.364944 -2416.229989 -442.632536
2296.364628 -2416.230184 -442.633113
2296.364671 -2416.230259 -442.632479
2296.36548 -2416.229376 -442.633101
2296.363933 -2416.230694 -442.633935
2296.363926 -2416.230843 -442.633153
2296.365055 -2416.229689 -442.633601
2296.364752 -2416.230421 -442.631177
2296.365275 -2416.229982 -442.630859
2296.365836 -2416.229332 -442.631499
2296.36502 -2416.230285 -442.630526
2296.366161 -2416.229056 -442.631313
2296.363827 -2416.230972 -442.632969
2296.365631 -2416.229397 -442.632205
2296.364661 -2416.230262 -442.632514
2296.365823 -2416.229397 -442.631205
2296.36524 -2416.229672 -442.632731
2296.365425 -2416.229415 -442.633178
2296.364259 -2416.230411 -442.633786
2296.36436 -2416.230655 -442.631935
2296.364295 -2416.230526 -442.632969
2296.364202 -2416.231368 -442.631261
2296.365488 -2416.229823 -442.633024
2296.365595 -2416.229686 -442.633218
2296.365293 -2416.229718 -442.63461
2296.365278 -2416.229992 -442.633191
2296.364363 -2416.230586 -442.634694
2296.365894 -2416.229378 -442.633346
2296.364219 -2416.231113 -442.63257
2296.364438 -2416.230625 -442.634096
2296.365751 -2416.229656 -442.632571
2296.365378 -2416.229781 -442.633824
2296.364412 -2416.230878 -442.632846
2296.365254 -2416.229882 -442.633913
2296.364366 -2416.230919 -442.632859
2296.365953 -2416.229546 -442.632128
2296.365172 -2416.230266 -442.632244
2296.365668 -2416.229702 -442.632752
2296.364262 -2416.230941 -442.633286
2296.364456 -2416.231015 -442.631868
2296.364261 -2416.230919 -442.633408
2296.365244 -2416.229964 -442.633524
2296.36493 -2416.230302 -442.633302
2296.365533 -2416.23014 -442.631059
2296.366224 -2416.229008 -442.633654
2296.365673 -2416.229694 -442.632771
2296.3656 -2416.229861 -442.632236
2296.364996 -2416.230055 -442.634308
2296.365666 -2416.229706 -442.632741
2296.366168 -2416.22925 -442.632623
2296.364711 -2416.230824 -442.631593
2296.365384 -2416.229953 -442.632857
2296.365866 -2416.229776 -442.631323
2296.365031 -2416.230336 -442.632596
2296.365256 -2416.230284 -442.631714
2296.365673 -2416.229897 -442.631662
2296.364909 -2416.23045 -442.632602
2296.364253 -2416.231069 -442.632627
2296.366764 -2416.228797 -442.632006
2296.36519 -2416.230302 -442.631958
2296.365326 -2416.229998 -442.632909
2296.36561 -2416.229688 -442.633127
2296.36588 -2416.229502 -442.632741
2296.365442 -2416.229696 -442.633958
2296.364725 -2416.230683 -442.63229
2296.365067 -2416.230196 -442.633171
2296.365185 -2416.230107 -442.633048
2296.364494 -2416.230699 -442.633403
2296.365272 -2416.229941 -442.633501
2296.365562 -2416.229546 -442.634151
2296.365938 -2416.22928 -442.633655
2296.366678 -2416.229024 -442.631213
2296.365292 -2416.230494 -442.63038
2296.364811 -2416.230698 -442.63114
2296.364127 -2416.230915 -442.631717
2296.365211 -2416.22996 -442.631307
2296.364677 -2416.230386 -442.631758
2296.365828 -2416.229345 -442.631466
2296.366565 -2416.22883 -442.630457
2296.365884 -2416.229284 -442.631512
2296.365585 -2416.229176 -442.633651
2296.364724 -2416.230025 -442.633482
2296.365437 -2416.229414 -442.633118
2296.365424 -2416.229637 -442.63197
2296.365028 -2416.229854 -442.632838
2296.36605 -2416.228715 -442.633754
2296.365891 -2416.228973 -442.63317
2296.36489 -2416.229754 -442.634095
2296.365052 -2416.229842 -442.632777
2296.364993 -2416.229885 -442.632848
2296.366037 -2416.228631 -442.634282
2296.365508 -2416.229394 -442.632858
2296.365825 -2416.228842 -442.634227
2296.364978 -2416.229906 -442.632816
2296.364437 -2416.230455 -442.632621
2296.366557 -2416.228884 -442.630201
2296.365694 -2416.229559 -442.630993
2296.366602 -2416.228555 -442.631765
2296.365941 -2416.229116 -442.632131
2296.365719 -2416.229245 -442.632578
2296.365865 -2416.229002 -442.633144
2296.366353 -2416.228706 -442.63223
2296.365907 -2416.228934 -442.633301
2296.366123 -2416.228529 -442.634392
2296.365204 -2416.229422 -442.634283
2296.364343 -2416.230437 -442.633211
2296.366311 -2416.228516 -442.633489
2296.366237 -2416.228672 -442.633018
2296.366611 -2416.228199 -442.633656
2296.365775 -2416.228841 -442.634494
2296.366014 -2416.228813 -442.633407
2296.365408 -2416.229491 -442.632847
2296.365525 -2416.22963 -442.631481
2296.366701 -2416.228225 -442.633048
2296.366536 -2416.228224 -442.633911
2296.365266 -2416.229546 -442.633282
2296.366949 -2416.22817 -442.632064
2296.366427 -2416.228753 -442.631592
2296.365923 -2416.229449 -442.630402
2296.366652 -2416.228766 -442.632754
2296.365507 -2416.23 -442.631957
2296.365973 -2416.22942 -442.632708
2296.366698 -2416.228639 -442.633206
2296.36559 -2416.229577 -442.633839
2296.365496 -2416.229495 -442.634777
2296.365792 -2416.22952 -442.633103
2296.365999 -2416.22934 -442.633009
2296.366487 -2416.229064 -442.631989
2296.365985 -2416.229279 -442.633417
2296.365403 -2416.229813 -442.633524
2296.36597 -2416.22958 -442.631848
2296.365772 -2416.229487 -442.633383
2296.36694 -2416.228551 -442.632437
2296.367231 -2416.228181 -442.632945
2296.366223 -2416.228955 -442.633951
2296.365917 -2416.229274 -442.633796
2296.366777 -2416.228398 -442.634116
2296.365871 -2416.229265 -442.634084
2296.365912 -2416.229476 -442.632719
2296.365779 -2416.229798 -442.631655
2296.367015 -2416.228446 -442.632616
2296.366892 -2416.228398 -442.63352
2296.366324 -2416.228904 -442.633706
2296.366691 -2416.228786 -442.632446
2296.366665 -2416.228745 -442.632804
2296.366539 -2416.229033 -442.631882
2296.36647 -2416.22865 -442.634328
2296.366608 -2416.22868 -442.633457
2296.367606 -2416.227374 -442.635408
2296.367859 -2416.22717 -442.635206
2296.36717 -2416.228193 -442.633193
2296.366181 -2416.228854 -442.634721
2296.366662 -2416.228466 -442.634343
2296.36631 -2416.22885 -442.634067
2296.365813 -2416.22941 -442.633591
2296.366792 -2416.228802 -442.631837
2296.366592 -2416.228629 -442.633811
2296.366935 -2416.22813 -442.634757
2296.366585 -2416.228437 -442.6349
2296.36638 -2416.228893 -442.633475
2296.366936 -2416.22845 -442.633009
2296.367257 -2416.227964 -442.631587
2296.367739 -2416.227354 -442.632416
2296.36702 -2416.227991 -442.632675
2296.366225 -2416.22905 -442.631016
2296.367199 -2416.227903 -442.632222
2296.366189 -2416.22858 -442.633768
2296.367204 -2416.227777 -442.632888
2296.36672 -2416.228388 -442.632067
2296.367427 -2416.227569 -442.632863
2296.366626 -2416.227961 -442.634879
2296.36699 -2416.227643 -442.634729
2296.36685 -2416.227926 -442.633914
2296.366575 -2416.228327 -442.63315
2296.36758 -2416.227422 -442.632874
2296.367326 -2416.227803 -442.632113
2296.367277 -2416.227727 -442.632781
2296.367665 -2416.22704 -442.634516
2296.367226 -2416.227455 -442.634534
2296.366944 -2416.227472 -442.635904
2296.367728 -2416.227004 -442.634387
2296.367074 -2416.227487 -442.635143
2296.367271 -2416.227236 -442.63549
2296.367829 -2416.22708 -442.633447
2296.36806 -2416.226861 -442.633451
2296.36741 -2416.227538 -442.633123
2296.367597 -2416.227586 -442.63189
2296.368369 -2416.226614 -442.633194
2296.367492 -2416.227192 -442.634583
2296.366566 -2416.227741 -442.636395
2296.367589 -2416.226996 -442.635155
2296.366854 -2416.227786 -442.634653
2296.366234 -2416.228293 -442.6351
2296.365893 -2416.228915 -442.633475
2296.367913 -2416.226996 -442.633471
2296.36709 -2416.227557 -442.634678
2296.367642 -2416.227002 -442.634847
2296.368181 -2416.226458 -442.635018
2296.368627 -2416.226236 -442.633916
2296.368169 -2416.226586 -442.634381
2296.366771 -2416.228004 -442.633892
2296.367701 -2416.22717 -442.633622
2296.368564 -2416.226593 -442.6347
2296.368601 -2416.226807 -442.633341
2296.368112 -2416.227437 -442.632439
2296.367707 -2416.227761 -442.632768
2296.367846 -2416.227522 -442.633352
2296.367938 -2416.22731 -442.634032
2296.367848 -2416.227296 -442.634571
2296.368213 -2416.22692 -442.634732
2296.368748 -2416.226367 -442.63498
2296.36736 -2416.227765 -442.634543
2296.368719 -2416.226946 -442.631964
2296.368107 -2416.227441 -442.632442
2296.36695 -2416.22843 -442.633045
2296.368177 -2416.226892 -442.635077
2296.367685 -2416.227309 -442.635349
2296.368492 -2416.226974 -442.63299
2296.368383 -2416.226817 -442.634411
2296.367238 -2416.228255 -442.632502
2296.367461 -2416.228113 -442.632122
2296.368714 -2416.226749 -442.633066
2296.368657 -2416.226355 -442.635514
2296.368514 -2416.226723 -442.634247
2296.368377 -2416.227018 -442.633348
2296.368829 -2416.226612 -442.633217
2296.3681 -2416.227172 -442.633942
2296.366876 -2416.228353 -442.633847
2296.36814 -2416.227044 -442.634436
2296.367724 -2416.227719 -442.632906
2296.36781 -2416.227128 -442.635687
2296.368701 -2416.226489 -442.634556
2296.36806 -2416.226947 -442.635378
2296.367787 -2416.227163 -442.635618
2296.368516 -2416.226719 -442.634257
2296.368178 -2416.227213 -442.633314
2296.368425 -2416.227037 -442.632993
2296.368006 -2416.227289 -442.633793
2296.368765 -2416.226528 -442.634009
2296.369705 -2416.225498 -442.634757
2296.368685 -2416.226309 -442.635618
2296.368631 -2416.226333 -442.633362
2296.367737 -2416.227166 -442.633455
2296.368667 -2416.226425 -442.632675
2296.368054 -2416.227054 -442.632425
2296.3675 -2416.227831 -442.631057
2296.368618 -2416.226233 -442.633981
2296.368336 -2416.226585 -442.633521
2296.368832 -2416.225946 -442.634436
2296.367363 -2416.227608 -442.632988
2296.367321 -2416.227593 -442.633281
2296.368367 -2416.226616 -442.633189
2296.368452 -2416.226233 -442.634839
2296.368491 -2416.226047 -442.635656
2296.367916 -2416.226862 -442.634188
2296.369069 -2416.225511 -442.635581
2296.368474 -2416.226518 -442.633169
2296.368075 -2416.227027 -442.632464
2296.367928 -2416.226941 -442.633692
2296.368371 -2416.226522 -442.633681
2296.368661 -2416.226299 -442.633401
2296.368174 -2416.22658 -442.634389
2296.369205 -2416.225626 -442.634247
2296.367474 -2416.227395 -442.633575
2296.369162 -2416.225614 -442.634533
2296.367217 -2416.22744 -442.634658
2296.368884 -2416.225928 -442.634265
2296.367701 -2416.226952 -442.634812
2296.368922 -2416.225756 -442.635007
2296.368775 -2416.226006 -442.634404
2296.369526 -2416.225683 -442.63227
2296.368727 -2416.226076 -442.634272
2296.367997 -2416.226669 -442.634819
2296.368673 -2416.226014 -442.63489
2296.368509 -2416.226085 -442.635349
2296.368446 -2416.226037 -442.635942
2296.368277 -2416.226227 -442.635781
2296.369694 -2416.224993 -442.635166
2296.368707 -2416.226292 -442.633196
2296.368686 -2416.226122 -442.634235
2296.368324 -2416.226437 -442.634387
2296.368252 -2416.226726 -442.633185
2296.367893 -2416.227046 -442.633301
2296.368344 -2416.226281 -442.635134
2296.368772 -2416.226016 -442.634368
2296.368744 -2416.226185 -442.633586
2296.368293 -2416.227087 -442.63161
2296.368432 -2416.227102 -442.632607
2296.3677 -2416.227755 -442.632838
2296.369415 -2416.225865 -442.634258
2296.368631 -2416.226848 -442.632955
2296.370123 -2416.225097 -442.634777
2296.369479 -2416.225286 -442.637085
2296.368974 -2416.226054 -442.635508
2296.367953 -2416.227202 -442.634541
2296.368138 -2416.226972 -442.634838
2296.368648 -2416.226402 -442.635305
2296.368724 -2416.226438 -442.634716
2296.369215 -2416.226313 -442.632845
2296.368288 -2416.227052 -442.633622
2296.369067 -2416.226275 -442.633828
2296.369118 -2416.226145 -442.634272
2296.369544 -2416.225675 -442.634625
2296.369446 -2416.225799 -442.634457
2296.369308 -2416.226104 -442.633507
2296.369069 -2416.226256 -442.633913
2296.369647 -2416.225736 -442.63376
2296.369836 -2416.225499 -442.634073
2296.36874 -2416.226586 -442.633827
2296.369825 -2416.225632 -442.633399
2296.369551 -2416.226151 -442.631995
2296.369224 -2416.226288 -442.632939
2296.368505 -2416.226922 -442.63321
2296.369669 -2416.225533 -442.634748
2296.368027 -2416.227318 -442.63353
2296.369813 -2416.225345 -442.635034
2296.368704 -2416.226263 -442.635771
2296.368491 -2416.226665 -442.634684
2296.368901 -2416.226015 -442.636107
2296.36887 -2416.226523 -442.633491
2296.369152 -2416.226173 -442.633944
2296.368842 -2416.226487 -442.633833
2296.369702 -2416.225476 -442.634891
2296.369634 -2416.225771 -442.633633
2296.36943 -2416.226019 -442.633336
2296.36945 -2416.225655 -442.635222
2296.370139 -2416.225318 -442.633484
2296.370169 -2416.225145 -442.634278
2296.370176 -2416.225132 -442.634308
2296.369622 -2416.225695 -442.634112
2296.369135 -2416.226103 -442.634409
2296.369406 -2416.225896 -442.634134
2296.368769 -2416.22641 -442.634633
2296.368949 -2416.226615 -442.632581
2296.3696 -2416.225817 -442.633557
2296.369641 -2416.225221 -442.636598
2296.370463 -2416.224662 -442.635389
2296.36969 -2416.225427 -442.635224
2296.369669 -2416.225367 -442.635662
2296.369654 -2416.225517 -442.634915
2296.369724 -2416.225563 -442.634298
2296.370316 -2416.224896 -442.63487
2296.369754 -2416.22539 -442.635092
2296.368648 -2416.226232 -442.63623
2296.370364 -2416.224827 -442.634999
2296.369894 -2416.225693 -442.63271
2296.369876 -2416.225214 -442.633016
2296.368807 -2416.226149 -442.633455
2296.369712 -2416.22495 -442.635305
2296.370175 -2416.224707 -442.634231
2296.370055 -2416.224786 -442.634423
2296.369879 -2416.225097 -442.633639
2296.369245 -2416.225532 -442.634549
2296.369378 -2416.225432 -442.634407
2296.36935 -2416.225745 -442.632848
2296.370066 -2416.225033 -442.633017
2296.369673 -2416.225279 -442.633714
2296.370056 -2416.224911 -442.633738
2296.368955 -2416.226178 -442.632534
2296.3703 -2416.224693 -442.633662
2296.369973 -2416.225037 -442.633479
2296.370322 -2416.224458 -442.634824
2296.36988 -2416.224875 -442.634844
2296.369799 -2416.224844 -442.635432
2296.37073 -2416.224129 -442.634503
2296.370719 -2416.223941 -442.635591
2296.370904 -2416.224043 -442.634074
2296.370397 -2416.224389 -442.634817
2296.369896 -2416.224946 -442.63437
2296.3707 -2416.224418 -442.633087
2296.37101 -2416.223823 -442.634722
2296.371386 -2416.223549 -442.634272
2296.369491 -2416.225272 -442.634701
2296.36982 -2416.225129 -442.633769
2296.370882 -2416.224507 -442.634058
2296.370997 -2416.224023 -442.636108
2296.370326 -2416.224657 -442.636121
2296.370651 -2416.224398 -442.635854
2296.370491 -2416.224667 -442.635211
2296.371414 -2416.223566 -442.636438
2296.37119 -2416.223928 -442.635624
2296.370311 -2416.224738 -442.635765
2296.370892 -2416.224211 -442.635622
2296.370201 -2416.225088 -442.634419
2296.371411 -2416.223795 -442.635204
2296.371196 -2416.224421 -442.632901
2296.371372 -2416.223998 -442.634298
2296.371288 -2416.224307 -442.633047
2296.370139 -2416.225211 -442.634073
2296.370855 -2416.224789 -442.632661
2296.371114 -2416.224393 -442.633476
2296.37128 -2416.224197 -442.633687
2296.371221 -2416.224421 -442.632771
2296.371066 -2416.224394 -442.633721
2296.371614 -2416.224242 -442.631705
2296.371471 -2416.224152 -442.632941
2296.371064 -2416.224397 -442.633712
2296.370429 -2416.225012 -442.633653
2296.370609 -2416.224918 -442.63323
2296.371103 -2416.224521 -442.632835
2296.371138 -2416.224394 -442.633348
2296.370973 -2416.224373 -442.634321
2296.370138 -2416.225101 -442.634678
2296.370993 -2416.224638 -442.632764
2296.371318 -2416.224017 -442.63447
2296.370953 -2416.224138 -442.635703
2296.37157 -2416.223413 -442.636462
2296.371761 -2416.223509 -442.634946
2296.371875 -2416.223436 -442.634755
2296.371389 -2416.224245 -442.632858
2296.371978 -2416.223625 -442.633187
2296.371049 -2416.224451 -442.633497
2296.370439 -2416.224814 -442.634681
2296.369971 -2416.225493 -442.633407
2296.371943 -2416.223628 -442.633353
2296.371251 -2416.224395 -442.632757
2296.371364 -2416.223692 -442.636011
2296.371458 -2416.223434 -442.636929
2296.371105 -2416.224201 -442.634573
2296.371564 -2416.223758 -442.63461
2296.371089 -2416.224018 -442.635654
2296.371772 -2416.223362 -442.63569
2296.371665 -2416.223502 -442.635484
2296.371821 -2416.223571 -442.634298
2296.370684 -2416.224856 -442.633182
2296.371438 -2416.223864 -442.634085
2296.370838 -2416.224308 -442.632968
2296.372166 -2416.222982 -442.633315
2296.372689 -2416.222256 -442.634566
2296.371893 -2416.222981 -442.63474
2296.371464 -2416.223567 -442.633767
2296.371737 -2416.22336 -442.633479
2296.370667 -2416.224351 -442.633623
2296.372318 -2416.222983 -442.632525
2296.371595 -2416.223754 -442.632071
2296.371201 -2416.224044 -442.632529
2296.370337 -2416.224935 -442.632143
2296.371652 -2416.22363 -442.632448
2296.373061 -2416.222199 -442.632948
2296.371691 -2416.223309 -442.634001
2296.372406 -2416.222689 -442.633674
2296.370903 -2416.223905 -442.634834
2296.371402 -2416.223381 -442.635106
2296.372176 -2416.222613 -442.635277
2296.371845 -2416.223088 -442.634405
2296.372278 -2416.222483 -442.635462
2296.372513 -2416.222452 -442.63441
2296.372451 -2416.222603 -442.633912
2296.370822 -2416.224053 -442.634443
2296.372158 -2416.223104 -442.632697
2296.372468 -2416.222562 -442.634044
2296.37295 -2416.221955 -442.634859
2296.372988 -2416.221973 -442.634564
2296.37303 -2416.22199 -442.634251
2296.372622 -2416.222434 -442.633947
2296.372987 -2416.221981 -442.634525
2296.37202 -2416.222984 -442.634064
2296.37266 -2416.222749 -442.634432
2296.373011 -2416.222243 -442.635373
2296.373003 -2416.222396 -442.634576
2296.37239 -2416.222973 -442.634607
2296.372087 -2416.223151 -442.63521
2296.372517 -2416.222541 -442.636306
2296.37287 -2416.222368 -442.635421
2296.372984 -2416.222298 -442.63521
2296.371598 -2416.223893 -442.633696
2296.373575 -2416.221867 -442.634504
2296.372384 -2416.223093 -442.63399
2296.372284 -2416.22322 -442.633814
2296.372213 -2416.222969 -442.635547
2296.372881 -2416.22267 -442.633717
2296.374243 -2416.221449 -442.633319
2296.373969 -2416.221447 -442.634747
2296.373292 -2416.222222 -442.63403
2296.3732 -2416.222613 -442.632369
2296.372544 -2416.223103 -442.633105
2296.37276 -2416.222899 -442.63309
2296.372612 -2416.223358 -442.63136
2296.372746 -2416.223261 -442.631191
2296.372286 -2416.223491 -442.63291
2296.372214 -2416.223766 -442.6336
2296.373569 -2416.222346 -442.634318
2296.37291 -2416.22317 -442.633243
2296.373319 -2416.222723 -442.633558
2296.373085 -2416.222942 -442.633576
2296.373684 -2416.22272 -442.631684
2296.37318 -2416.222895 -442.633341
2296.373928 -2416.221864 -442.635087
2296.374174 -2416.221824 -442.634027
2296.373682 -2416.222237 -442.63433
2296.373478 -2416.222405 -442.634468
2296.374875 -2416.220785 -442.636064
2296.37395 -2416.222014 -442.634154
2296.374126 -2416.222076 -442.632312
2296.373118 -2416.222479 -442.633528
2296.373835 -2416.222097 -442.631897
2296.374055 -2416.221867 -442.632004
2296.372207 -2416.223588 -442.632205
2296.374767 -2416.221129 -442.632346
2296.373931 -2416.221223 -442.63617
2296.374008 -2416.221261 -442.63556
2296.373299 -2416.222085 -442.634739
2296.373221 -2416.222158 -442.63475
2296.37389 -2416.221526 -442.634726
2296.374187 -2416.22115 -442.63524
2296.374028 -2416.221214 -442.635713
2296.375015 -2416.220252 -442.63584
2296.374231 -2416.221165 -442.634926
2296.374363 -2416.220837 -442.636029
2296.37468 -2416.221155 -442.632655
2296.373716 -2416.22195 -442.633319
2296.372485 -2416.22252 -442.634188
2296.373115 -2416.221994 -442.633787
2296.374282 -2416.220943 -442.63347
2296.374478 -2416.220562 -442.634533
2296.373286 -2416.221919 -442.633311
2296.37396 -2416.221555 -442.6318
2296.373672 -2416.22171 -442.632448
2296.373051 -2416.222218 -442.632897
2296.373903 -2416.221153 -442.634292
2296.372411 -2416.222759 -442.633269
2296.372511 -2416.222647 -442.633361
2296.373793 -2416.221307 -442.634019
2296.373017 -2416.222078 -442.633841
2296.374196 -2416.220814 -442.634619
2296.373987 -2416.220854 -442.635488
2296.373638 -2416.221278 -442.634986
2296.373352 -2416.221547 -442.635
2296.373874 -2416.221162 -442.634393
2296.373917 -2416.221072 -442.634662
2296.373399 -2416.221363 -442.635758
2296.37312 -2416.221768 -442.634998
2296.373413 -2416.221826 -442.633163
2296.374023 -2416.221333 -442.632689
2296.374329 -2416.221022 -442.632798
2296.373318 -2416.221946 -442.633
2296.374058 -2416.221025 -442.634184
2296.374237 -2416.220938 -442.633729
2296.373548 -2416.221862 -442.632264
2296.373971 -2416.221407 -442.632556
2296.372282 -2416.222758 -442.63394
2296.373662 -2416.221723 -442.632431
2296.374379 -2416.220554 -442.635092
2296.373608 -2416.221041 -442.636431
2296.372754 -2416.221977 -442.635753
2296.373445 -2416.221653 -442.633934
2296.373397 -2416.221642 -442.634251
2296.373762 -2416.221599 -442.632591
2296.373904 -2416.221512 -442.63233
2296.373673 -2416.221907 -442.633774
2296.37374 -2416.221724 -442.63442
2296.374088 -2416.221596 -442.63332
2296.37429 -2416.221226 -442.634288
2296.372565 -2416.222853 -442.634356
2296.373627 -2416.221517 -442.636141
2296.374722 -2416.22082 -442.634268
2296.373528 -2416.221841 -442.634886
2296.374053 -2416.221779 -442.6325
2296.374194 -2416.22176 -442.63187
2296.373198 -2416.222421 -442.63343
2296.374428 -2416.221213 -442.633646
2296.373467 -2416.222193 -442.63328
2296.373589 -2416.221488 -442.636496
2296.373391 -2416.222083 -442.634277
2296.374615 -2416.22117 -442.63291
2296.374575 -2416.221167 -442.635541
2296.37483 -2416.220784 -442.636305
2296.373984 -2416.221703 -442.635678
2296.374322 -2416.22135 -442.635846
2296.37397 -2416.221651 -442.636035
2296.3737 -2416.221784 -442.636708
2296.374241 -2416.221578 -442.635022
2296.374551 -2416.221473 -442.633991
2296.373298 -2416.222649 -442.634073
2296.374343 -2416.221725 -442.633695
2296.37334 -2416.222504 -442.634641
2296.374081 -2416.221715 -442.635109
2296.375009 -2416.220889 -442.6348
2296.374527 -2416.221629 -442.633262
2296.372545 -2416.223438 -442.633674
2296.37292 -2416.222968 -442.634291
2296.373687 -2416.222213 -442.63443
2296.373762 -2416.222053 -442.634921
2296.374828 -2416.221115 -442.634506
2296.374982 -2416.220855 -442.635131
2296.374528 -2416.221088 -442.636208
2296.373565 -2416.221957 -442.636466
2296.373179 -2416.222576 -442.635088
2296.373766 -2416.22191 -442.635682
2296.374052 -2416.221688 -442.635407
2296.373814 -2416.222119 -442.634283
2296.373661 -2416.22182 -442.634308
2296.372315 -2416.223248 -442.633501
2296.373979 -2416.221641 -442.633638
2296.373323 -2416.221919 -442.635524
2296.373347 -2416.22209 -442.634465
2296.373547 -2416.221702 -442.635549
2296.374045 -2416.22128 -442.63526
2296.374683 -2416.220939 -442.633817
2296.373359 -2416.222057 -442.634587
2296.37393 -2416.221341 -442.635529
2296.373492 -2416.22182 -442.635188
2296.373596 -2416.221854 -442.634462
2296.372967 -2416.222111 -442.636321
2296.372671 -2416.222715 -442.634558
2296.373661 -2416.221539 -442.635844
2296.372987 -2416.222075 -442.636418
2296.373783 -2416.221502 -442.635411
2296.37313 -2416.221888 -442.636695
2296.372377 -2416.222691 -442.636219
2296.372734 -2416.222606 -442.634828
2296.374087 -2416.220938 -442.636914
2296.373012 -2416.221978 -442.636235
2296.373868 -2416.221031 -442.63514
2296.372726 -2416.222136 -442.635031
2296.373472 -2416.221439 -442.634964
2296.373063 -2416.221514 -442.636679
2296.372806 -2416.221686 -442.637071
2296.373001 -2416.22173 -442.635821
2296.373538 -2416.22142 -442.634724
2296.373104 -2416.221737 -442.63525
2296.373409 -2416.221831 -442.633151
2296.373198 -2416.221702 -442.634953
2296.373437 -2416.221552 -442.634532
2296.372533 -2416.22241 -442.634538
2296.372707 -2416.221989 -442.635933
2296.372282 -2416.222389 -442.635953
2296.372833 -2416.222102 -442.634663
2296.373371 -2416.221504 -442.635137
2296.373339 -2416.221478 -442.635443
2296.372878 -2416.221707 -442.636586
2296.37392 -2416.220514 -442.637692
2296.373175 -2416.221264 -442.637459
2296.373052 -2416.221532 -442.636638
2296.372897 -2416.221728 -442.636372
2296.372356 -2416.222651 -442.63654
2296.373396 -2416.221889 -442.635303
2296.373747 -2416.221251 -442.636972
2296.373088 -2416.222072 -442.635906
2296.372693 -2416.222361 -442.636377
2296.372825 -2416.222204 -442.636549
2296.372433 -2416.222561 -442.636638
2296.372741 -2416.222167 -442.637188
2296.371891 -2416.223094 -442.636539
2296.372866 -2416.222075 -442.637042
2296.372925 -2416.222803 -442.63517
2296.371472 -2416.224352 -442.634245
2296.373053 -2416.222777 -442.634646
2296.373277 -2416.222305 -442.636054
2296.373003 -2416.222568 -442.636042
2296.372959 -2416.222462 -442.636851
2296.371946 -2416.223258 -442.637758
2296.3718 -2416.223329 -442.638133
2296.372421 -2416.222816 -442.637707
2296.371731 -2416.223479 -442.637671
2296.372505 -2416.223047 -442.636014
2296.372083 -2416.223375 -442.636409
2296.372394 -2416.223188 -442.635817
2296.373841 -2416.221793 -442.635926
2296.37272 -2416.22265 -442.637064
2296.372506 -2416.22289 -442.636864
2296.374174 -2416.221554 -442.635507
2296.373288 -2416.222525 -442.634801
2296.373154 -2416.222765 -442.634187
2296.37212 -2416.223384 -442.63617
2296.372302 -2416.223312 -442.635621
2296.371241 -2416.224235 -442.636086
2296.372366 -2416.223427 -442.634657
2296.372611 -2416.222852 -442.636524
2296.372863 -2416.222629 -442.636437
2296.372341 -2416.222985 -442.637204
2296.372707 -2416.222458 -442.638175
2296.372486 -2416.222667 -442.638184
2296.371502 -2416.223494 -442.638775
2296.373702 -2416.221827 -442.636464
2296.372349 -2416.223112 -442.636467
2296.372026 -2416.223452 -442.636285
2296.372322 -2416.22315 -442.636399
2296.372043 -2416.223444 -442.636243
2296.372097 -2416.222703 -442.637602
2296.371257 -2416.223787 -442.636045
2296.372206 -2416.222588 -442.637666
2296.371455 -2416.223753 -442.635201
2296.372201 -2416.222823 -442.636405
2296.370154 -2416.224831 -442.636071
2296.371697 -2416.223251 -442.63669
2296.370058 -2416.224893 -442.636227
2296.37054 -2416.224496 -442.635894
2296.37066 -2416.223963 -442.635777
2296.370696 -2416.224016 -442.6353
2296.371374 -2416.223066 -442.636968
2296.370487 -2416.223858 -442.637245
2296.372109 -2416.222741 -442.634932
2296.370775 -2416.223909 -442.635476
2296.37099 -2416.223307 -442.637646
2296.370948 -2416.223211 -442.638386
2296.369979 -2416.224362 -442.637134
2296.370301 -2416.224016 -442.63735
2296.371901 -2416.222557 -442.637014
2296.37121 -2416.223363 -442.6362
2296.372302 -2416.222474 -442.635384
2296.369842 -2416.224626 -442.635833
2296.370196 -2416.22393 -442.63596
2296.370786 -2416.2234 -442.635795
2296.370662 -2416.223679 -442.63491
2296.369754 -2416.224631 -442.63443
2296.369336 -2416.224759 -442.635897
2296.37005 -2416.224137 -442.63559
2296.369835 -2416.224065 -442.637095
2296.370344 -2416.223726 -442.636304
2296.37109 -2416.223476 -442.636201
2296.369243 -2416.224899 -442.638023
2296.369863 -2416.224524 -442.636848
2296.371325 -2416.222968 -442.637756
2296.370069 -2416.224128 -442.637944
2296.36981 -2416.224329 -442.638193
2296.370814 -2416.223548 -442.63724
2296.368921 -2416.225005 -442.639681
2296.370854 -2416.223583 -442.639251
2296.370886 -2416.223743 -442.63821
2296.369497 -2416.225077 -442.638135
2296.369649 -2416.225152 -442.63693
2296.370857 -2416.223958 -442.637186
2296.370594 -2416.224593 -442.635083
2296.3693 -2416.225735 -442.635559
2296.369817 -2416.225089 -442.636406
2296.369932 -2416.224896 -442.636865
2296.370056 -2416.224804 -442.63672
2296.369137 -2416.225624 -442.637013
2296.370176 -2416.224784 -442.636214
2296.369157 -2416.225661 -442.636709
2296.36991 -2416.224719 -442.637944
2296.368967 -2416.225896 -442.636411
2296.369927 -2416.224905 -442.636843
2296.369683 -2416.224945 -442.63789
2296.369738 -2416.224932 -442.637677
2296.370175 -2416.224651 -442.636942
2296.370163 -2416.224527 -442.637677
2296.369803 -2416.225184 -442.635958
2296.369941 -2416.224745 -442.637642
2296.370338 -2416.224454 -442.637169
2296.368704 -2416.226289 -442.635633
2296.369689 -2416.225177 -442.636596
2296.369151 -2416.225807 -442.635943
2296.370498 -2416.224327 -442.637034
2296.369247 -2416.225342 -442.637981
2296.369314 -2416.225741 -442.635459
2296.369042 -2416.225686 -442.637167
2296.368923 -2416.225913 -442.636544
2296.368868 -2416.226024 -442.63623
2296.368739 -2416.225773 -442.638263
2296.369041 -2416.225602 -442.63763
2296.369309 -2416.225062 -442.639194
2296.368625 -2416.226004 -442.637596
2296.367805 -2416.226838 -442.637296
2296.368643 -2416.226125 -442.636845
2296.368907 -2416.225796 -442.63727
2296.369563 -2416.225116 -442.637579
2296.368193 -2416.22608 -442.639424
2296.368367 -2416.225863 -442.639703
2296.368558 -2416.225953 -442.638225
2296.369556 -2416.224967 -442.638428
2296.368528 -2416.225789 -442.639276
2296.368817 -2416.225633 -442.63863
2296.369227 -2416.22533 -442.638157
2296.36887 -2416.22575 -442.637708
2296.369327 -2416.225127 -442.638744
2296.367147 -2416.227109 -442.639234
2296.367648 -2416.22724 -442.635916
2296.369106 -2416.225683 -442.636854
2296.368092 -2416.226765 -442.636203
2296.369582 -2416.22528 -442.636584
2296.368994 -2416.225619 -442.637786
2296.368221 -2416.226379 -442.637641
2296.369847 -2416.224693 -442.638417
2296.367724 -2416.226937 -442.637176
2296.368628 -2416.226084 -442.637143
2296.368942 -2416.225643 -442.637923
2296.368936 -2416.225567 -442.638365
2296.36919 -2416.225342 -442.63828
2296.369001 -2416.225822 -442.636642
2296.368633 -2416.22628 -442.636053
2296.367456 -2416.227117 -442.635181
2296.367601 -2416.226666 -442.636891
2296.368779 -2416.225621 -442.636483
2296.368516 -2416.225801 -442.636868
2296.367495 -2416.226813 -442.636638
2296.369166 -2416.225133 -442.637143
2296.367324 -2416.227026 -442.636366
2296.368271 -2416.22591 -442.637542
2296.367424 -2416.22671 -442.637569
2296.367775 -2416.226466 -442.637079
2296.368256 -2416.226007 -442.637091
2296.368407 -2416.225613 -442.63846
2296.367904 -2416.226114 -442.638333
2296.367154 -2416.226978 -442.63751
2296.367539 -2416.226781 -442.636589
2296.366187 -2416.227978 -442.637063
2296.367084 -2416.226957 -442.637985
2296.367331 -2416.226773 -442.637709
2296.367932 -2416.226227 -442.637569
2296.368753 -2416.225464 -442.637473
2296.368353 -2416.225466 -442.639538
2296.368482 -2416.225514 -442.638608
2296.367649 -2416.226603 -442.636987
2296.368214 -2416.226168 -442.63643
2296.368944 -2416.22552 -442.636177
2296.367459 -2416.227113 -442.635191
2296.366265 -2416.228273 -442.63505
2296.367211 -2416.227315 -442.635373
2296.367989 -2416.226344 -442.636636
2296.368057 -2416.226133 -442.637436
2296.367385 -2416.227019 -442.636086
2296.367924 -2416.226629 -442.635417
2296.368534 -2416.22593 -442.63607
2296.368214 -2416.225784 -442.638527
2296.367039 -2416.226989 -442.638042
2296.366935 -2416.227619 -442.637545
2296.366879 -2416.227754 -442.637104
2296.367949 -2416.226471 -442.638554
2296.367846 -2416.226622 -442.638263
2296.366573 -2416.227946 -442.637643
2296.367819 -2416.22699 -442.636393
2296.368677 -2416.22599 -442.637403
2296.368663 -2416.226382 -442.635895
2296.367634 -2416.227784 -442.635423
2296.368341 -2416.22696 -442.636255
2296.367897 -2416.227389 -442.636214
2296.366931 -2416.228249 -442.636534
2296.367625 -2416.227816 -442.635297
2296.367909 -2416.227464 -442.635747
2296.367939 -2416.227343 -442.636255
2296.36875 -2416.226677 -442.635674
2296.36742 -2416.227731 -442.636825
2296.36805 -2416.226925 -442.637955
2296.367983 -2416.226928 -442.638283
2296.367048 -2416.227784 -442.638464
2296.366544 -2416.228354 -442.637969
2296.367179 -2416.22768 -442.638352
2296.367994 -2416.227141 -442.637063
2296.3678 -2416.227382 -442.63676
2296.368268 -2416.226795 -442.637535
2296.36768 -2416.22709 -442.638973
2296.367285 -2416.227489 -442.638849
2296.367768 -2416.226941 -442.639331
2296.367 -2416.228096 -442.637011
2296.366078 -2416.229061 -442.636529
2296.367042 -2416.228333 -442.635503
2296.367208 -2416.227922 -442.636879
2296.368811 -2416.226387 -442.636948
