ply
format ascii 1.0
element vertex 1306
property float x
property float y
property float z
end_header
2064.16875 -2262.271823 -411.252847
2064.168061 -2262.272297 -411.253694
2064.167633 -2262.272809 -411.253028
2064.168076 -2262.272273 -411.253752
2064.168269 -2262.271927 -411.254684
2064.168348 -2262.27197 -411.254056
2064.168581 -2262.271793 -411.25386
2064.166826 -2262.27311 -411.253045
2064.16631 -2262.273499 -411.253498
2064.166676 -2262.273052 -411.254118
2064.16719 -2262.272693 -411.253511
2064.169028 -2262.270915 -411.254069
2064.168812 -2262.271551 -411.251654
2064.168605 -2262.271604 -411.252405
2064.169446 -2262.270945 -411.251806
2064.166569 -2262.273457 -411.25243
2064.167598 -2262.272405 -411.253055
2064.168049 -2262.271992 -411.253058
2064.168111 -2262.271714 -411.254277
2064.167037 -2262.273032 -411.252413
2064.167964 -2262.27192 -411.253878
2064.16784 -2262.271897 -411.254631
2064.167728 -2262.272207 -411.253483
2064.166503 -2262.273099 -411.254725
2064.167537 -2262.272466 -411.253022
2064.167948 -2262.27219 -411.252477
2064.168033 -2262.272225 -411.251858
2064.168408 -2262.27185 -411.252037
2064.168274 -2262.271605 -411.254059
2064.169322 -2262.270636 -411.254127
2064.167476 -2262.272381 -411.253795
2064.168832 -2262.271562 -411.251497
2064.168816 -2262.271315 -411.252938
2064.16759 -2262.272675 -411.251607
2064.16816 -2262.272181 -411.251463
2064.167795 -2262.272157 -411.253426
2064.169108 -2262.271093 -411.252692
2064.169474 -2262.270777 -411.252587
2064.169206 -2262.271099 -411.252158
2064.169135 -2262.270924 -411.253485
2064.168608 -2262.271366 -411.253699
2064.168643 -2262.271367 -411.253515
2064.168693 -2262.271097 -411.254752
2064.169514 -2262.27067 -411.25298
2064.168391 -2262.271327 -411.255001
2064.16766 -2262.272154 -411.254118
2064.168644 -2262.27122 -411.25432
2064.168665 -2262.271532 -411.252497
2064.168913 -2262.271421 -411.251865
2064.169287 -2262.270905 -411.252823
2064.169787 -2262.270497 -411.252554
2064.171032 -2262.269518 -411.251695
2064.170641 -2262.269832 -411.251926
2064.169727 -2262.270813 -411.251121
2064.169626 -2262.270607 -411.252757
2064.16822 -2262.271791 -411.253308
2064.168834 -2262.271246 -411.253225
2064.168028 -2262.271986 -411.253193
2064.168396 -2262.271829 -411.252214
2064.169281 -2262.271306 -411.253025
2064.168331 -2262.272264 -411.252521
2064.169001 -2262.271449 -411.253644
2064.169832 -2262.270498 -411.254705
2064.16898 -2262.271334 -411.25438
2064.16938 -2262.271498 -411.253848
2064.169369 -2262.271796 -411.252266
2064.168901 -2262.272026 -411.253346
2064.168542 -2262.272038 -411.255087
2064.168386 -2262.27245 -411.253604
2064.168521 -2262.272333 -411.253566
2064.167341 -2262.273413 -411.253546
2064.168638 -2262.271898 -411.255375
2064.167658 -2262.273163 -411.253334
2064.168777 -2262.272169 -411.253183
2064.168601 -2262.272654 -411.2514
2064.167882 -2262.273388 -411.250971
2064.169409 -2262.271769 -411.252212
2064.169213 -2262.27188 -411.252588
2064.168397 -2262.272874 -411.251215
2064.167227 -2262.273738 -411.252337
2064.167709 -2262.273583 -411.250764
2064.167838 -2262.273023 -411.253198
2064.168434 -2262.272733 -411.251805
2064.166415 -2262.274416 -411.25268
2064.168446 -2262.272397 -411.25359
2064.168801 -2262.272107 -411.253403
2064.167833 -2262.273294 -411.251736
2064.167983 -2262.272812 -411.253633
2064.168704 -2262.272522 -411.251614
2064.168365 -2262.272672 -411.252487
2064.168132 -2262.27291 -411.251767
2064.16818 -2262.272185 -411.253718
2064.169408 -2262.271215 -411.252886
2064.169912 -2262.271141 -411.250766
2064.168889 -2262.271915 -411.251645
2064.16794 -2262.272309 -411.251858
2064.168551 -2262.271614 -411.252617
2064.169128 -2262.271114 -411.252471
2064.16993 -2262.270262 -411.253134
2064.169324 -2262.2712 -411.251017
2064.168926 -2262.271397 -411.251932
2064.168455 -2262.271731 -411.25246
2064.169224 -2262.270921 -411.253052
2064.169533 -2262.270199 -411.253092
2064.16836 -2262.271249 -411.253207
2064.167956 -2262.271678 -411.252873
2064.168545 -2262.27108 -411.253207
2064.17068 -2262.269054 -411.253637
2064.169836 -2262.269652 -411.254584
2064.169182 -2262.270421 -411.253639
2064.169532 -2262.270143 -411.252835
2064.16932 -2262.269764 -411.254183
2064.169113 -2262.269814 -411.254943
2064.169483 -2262.269692 -411.253757
2064.170365 -2262.26902 -411.253031
2064.169177 -2262.269997 -411.253614
2064.170121 -2262.269382 -411.25226
2064.170709 -2262.268575 -411.25375
2064.169932 -2262.269757 -411.251144
2064.169269 -2262.270034 -411.25295
2064.168718 -2262.27065 -411.252329
2064.168456 -2262.271316 -411.249977
2064.169099 -2262.270246 -411.25264
2064.168144 -2262.270662 -411.255146
2064.16927 -2262.269685 -411.254869
2064.168439 -2262.271398 -411.25199
2064.168662 -2262.271259 -411.251634
2064.169091 -2262.270459 -411.253883
2064.168728 -2262.270837 -411.253624
2064.168377 -2262.271262 -411.253053
2064.169565 -2262.27027 -411.254924
2064.168762 -2262.271316 -411.253199
2064.16938 -2262.270936 -411.252184
2064.169256 -2262.271018 -411.25236
2064.169145 -2262.270651 -411.254932
2064.169089 -2262.271035 -411.253671
2064.168318 -2262.272149 -411.253222
2064.168609 -2262.272256 -411.251175
2064.17047 -2262.270463 -411.251693
2064.168797 -2262.271695 -411.253315
2064.168874 -2262.272024 -411.253492
2064.168909 -2262.272188 -411.252417
2064.168368 -2262.272842 -411.251535
2064.167906 -2262.272938 -411.253326
2064.169084 -2262.271644 -411.254532
2064.168837 -2262.271837 -411.25471
2064.168716 -2262.272473 -411.254197
2064.168417 -2262.272773 -411.254046
2064.169301 -2262.272197 -411.252778
2064.169195 -2262.272297 -411.252761
2064.168503 -2262.273061 -411.252029
2064.168852 -2262.272502 -411.253359
2064.168902 -2262.272383 -411.253757
2064.167586 -2262.273465 -411.254409
2064.169428 -2262.271668 -411.25505
2064.168506 -2262.272652 -411.254263
2064.170321 -2262.270984 -411.254328
2064.169918 -2262.271647 -411.252708
2064.170415 -2262.271478 -411.251142
2064.168114 -2262.272925 -411.252355
2064.169158 -2262.271794 -411.253332
2064.168028 -2262.272854 -411.253178
2064.169501 -2262.271524 -411.253099
2064.169894 -2262.271249 -411.252641
2064.168502 -2262.272481 -411.25285
2064.169709 -2262.271336 -411.25309
2064.16867 -2262.272235 -411.253361
2064.168541 -2262.272059 -411.254974
2064.169707 -2262.271076 -411.254527
2064.169796 -2262.270791 -411.253274
2064.168579 -2262.271496 -411.255508
2064.168395 -2262.271821 -411.254641
2064.168043 -2262.27218 -411.25443
2064.170339 -2262.270179 -411.253912
2064.170277 -2262.269838 -411.253719
2064.169182 -2262.270738 -411.254268
2064.168589 -2262.271113 -411.255179
2064.169672 -2262.270501 -411.253115
2064.168659 -2262.271408 -411.253207
2064.16943 -2262.270711 -411.253177
2064.168791 -2262.271254 -411.253395
2064.16924 -2262.270999 -411.252541
2064.169446 -2262.270423 -411.254679
2064.169888 -2262.270145 -411.253984
2064.168644 -2262.271364 -411.253527
2064.168606 -2262.271346 -411.253814
2064.169236 -2262.27054 -411.255092
2064.169491 -2262.270233 -411.255498
2064.16822 -2262.271446 -411.255204
2064.168669 -2262.271062 -411.255062
2064.168237 -2262.271652 -411.25398
2064.16949 -2262.27039 -411.254637
2064.168205 -2262.271489 -411.25504
2064.169312 -2262.27061 -411.254321
2064.168549 -2262.271475 -411.253393
2064.16867 -2262.271092 -411.25489
2064.169168 -2262.27082 -411.253885
2064.169348 -2262.270405 -411.255271
2064.169009 -2262.270949 -411.25398
2064.167543 -2262.272127 -411.254854
2064.168432 -2262.27159 -411.253348
2064.168695 -2262.27113 -411.254557
2064.168932 -2262.271072 -411.253689
2064.167296 -2262.272339 -411.254925
2064.16684 -2262.272892 -411.254176
2064.168225 -2262.271759 -411.253457
2064.167798 -2262.27175 -411.255652
2064.168236 -2262.271617 -411.254183
2064.16739 -2262.272445 -411.253874
2064.168282 -2262.271754 -411.253197
2064.168397 -2262.271351 -411.254837
2064.16772 -2262.271513 -411.257349
2064.168326 -2262.271039 -411.256911
2064.168507 -2262.270884 -411.256857
2064.16766 -2262.271757 -411.256305
2064.168148 -2262.271719 -411.254064
2064.167269 -2262.272358 -411.254959
2064.168601 -2262.271347 -411.253834
2064.169 -2262.270788 -411.254908
2064.168654 -2262.271365 -411.253469
2064.169477 -2262.270669 -411.253165
2064.168594 -2262.271531 -411.252857
2064.16871 -2262.271106 -411.254616
2064.168885 -2262.271037 -411.254117
2064.168586 -2262.271056 -411.255509
2064.169235 -2262.270545 -411.255063
2064.169156 -2262.27038 -411.256369
2064.168456 -2262.271154 -411.255626
2064.167672 -2262.271878 -411.255577
2064.168523 -2262.270972 -411.25629
2064.168624 -2262.270799 -411.256736
2064.168236 -2262.271226 -411.256334
2064.168846 -2262.271366 -411.254875
2064.167948 -2262.271855 -411.256697
2064.16875 -2262.271142 -411.256594
2064.168896 -2262.270905 -411.257165
2064.169481 -2262.270397 -411.257022
2064.168252 -2262.27169 -411.256079
2064.168257 -2262.271681 -411.2561
2064.167625 -2262.272447 -411.255057
2064.16933 -2262.271034 -411.254279
2064.168732 -2262.271101 -411.25691
2064.169267 -2262.270962 -411.254989
2064.167612 -2262.272438 -411.255175
2064.168744 -2262.271296 -411.255776
2064.168186 -2262.272179 -411.253721
2064.167555 -2262.272712 -411.253957
2064.168728 -2262.271543 -411.254496
2064.167908 -2262.272301 -411.254444
2064.167367 -2262.272434 -411.256425
2064.167088 -2262.272775 -411.255951
2064.167864 -2262.272303 -411.254653
2064.167361 -2262.272735 -411.254799
2064.168198 -2262.271715 -411.256212
2064.166805 -2262.273084 -411.25567
2064.167645 -2262.272127 -411.25672
2064.167385 -2262.272298 -411.257084
2064.167855 -2262.271934 -411.256731
2064.167339 -2262.272625 -411.255521
2064.16842 -2262.27145 -411.256554
2064.167213 -2262.272248 -411.258221
2064.16816 -2262.271767 -411.256113
2064.166453 -2262.273439 -411.255486
2064.167394 -2262.272499 -411.255932
2064.167405 -2262.272482 -411.255973
2064.167357 -2262.272481 -411.256215
2064.167007 -2262.272727 -411.256624
2064.165952 -2262.273815 -411.255929
2064.166282 -2262.273351 -411.256833
2064.16638 -2262.273233 -411.256983
2064.166029 -2262.27355 -411.257004
2064.166933 -2262.272663 -411.257344
2064.166315 -2262.273336 -411.256742
2064.166755 -2262.272735 -411.257845
2064.166728 -2262.273029 -411.256363
2064.166455 -2262.272963 -411.258094
2064.1677 -2262.272032 -411.256967
2064.167737 -2262.272303 -411.255293
2064.167799 -2262.272031 -411.256475
2064.167649 -2262.272121 -411.25673
2064.166004 -2262.273658 -411.256535
2064.167253 -2262.272727 -411.255386
2064.166876 -2262.273192 -411.254723
2064.167752 -2262.271602 -411.256694
2064.168303 -2262.271334 -411.255404
2064.167362 -2262.272414 -411.254187
2064.168796 -2262.270936 -411.25512
2064.168233 -2262.271624 -411.25416
2064.16827 -2262.271172 -411.255902
2064.167315 -2262.272021 -411.254206
2064.167297 -2262.271655 -411.256311
2064.167343 -2262.271549 -411.256663
2064.16681 -2262.271821 -411.25784
2064.166471 -2262.27244 -411.256137
2064.167743 -2262.271264 -411.256222
2064.167208 -2262.271562 -411.257268
2064.166299 -2262.272287 -411.257842
2064.167705 -2262.27114 -411.257092
2064.167527 -2262.271538 -411.255798
2064.168514 -2262.270744 -411.255215
2064.168724 -2262.270563 -411.255155
2064.168613 -2262.270466 -411.256246
2064.168889 -2262.270168 -411.256501
2064.167856 -2262.27122 -411.255896
2064.168574 -2262.270348 -411.257088
2064.168169 -2262.270781 -411.256738
2064.167154 -2262.271693 -411.256815
2064.166782 -2262.272093 -411.256481
2064.167334 -2262.271572 -411.256581
2064.167469 -2262.271488 -411.256366
2064.167894 -2262.271347 -411.255004
2064.167308 -2262.271528 -411.256953
2064.167156 -2262.271515 -411.258344
2064.167083 -2262.272387 -411.255738
2064.167638 -2262.271652 -411.256992
2064.168253 -2262.270895 -411.258066
2064.16684 -2262.27209 -411.258588
2064.166679 -2262.272527 -411.25755
2064.166603 -2262.273055 -411.256846
2064.167534 -2262.272474 -411.255368
2064.166443 -2262.273417 -411.255657
2064.167959 -2262.271772 -411.257096
2064.167312 -2262.272562 -411.255999
2064.166751 -2262.273246 -411.255048
2064.167614 -2262.272681 -411.256208
2064.166555 -2262.273776 -411.255499
2064.16675 -2262.273538 -411.25583
2064.166227 -2262.274442 -411.253478
2064.165638 -2262.274823 -411.254341
2064.165116 -2262.275019 -411.255886
2064.167076 -2262.272867 -411.257884
2064.166084 -2262.27397 -411.25679
2064.165666 -2262.274919 -411.256049
2064.166399 -2262.274211 -411.256265
2064.165995 -2262.274207 -411.258313
2064.165332 -2262.274806 -411.258346
2064.16648 -2262.274148 -411.256208
2064.165383 -2262.274741 -411.258452
2064.166435 -2262.273936 -411.257601
2064.165957 -2262.27452 -411.256784
2064.166154 -2262.274278 -411.257126
2064.165886 -2262.2746 -411.256701
2064.165881 -2262.274608 -411.25668
2064.164799 -2262.275521 -411.257086
2064.166018 -2262.274704 -411.255465
2064.166445 -2262.273986 -411.257272
2064.165112 -2262.275835 -411.253788
2064.167753 -2262.273121 -411.255468
2064.167154 -2262.273392 -411.256428
2064.166209 -2262.273753 -411.25736
2064.165605 -2262.274258 -411.257611
2064.166635 -2262.273554 -411.256318
2064.165885 -2262.274349 -411.255708
2064.165886 -2262.274316 -411.255886
2064.166111 -2262.273635 -411.25795
2064.165321 -2262.274116 -411.257444
2064.166464 -2262.273387 -411.255714
2064.166149 -2262.273568 -411.2563
2064.166442 -2262.273272 -411.256456
2064.166586 -2262.27301 -411.257177
2064.166345 -2262.272749 -411.257444
2064.166846 -2262.272322 -411.257281
2064.166709 -2262.272742 -411.255657
2064.166384 -2262.273117 -411.25523
2064.165658 -2262.27317 -411.256205
2064.166492 -2262.272096 -411.257925
2064.166025 -2262.272806 -411.256363
2064.165776 -2262.273314 -411.254817
2064.166827 -2262.272233 -411.255491
2064.166323 -2262.273086 -411.253327
2064.165627 -2262.273489 -411.254606
2064.166424 -2262.272641 -411.255266
2064.166243 -2262.272857 -411.254991
2064.165218 -2262.273634 -411.255858
2064.165596 -2262.273285 -411.255879
2064.166296 -2262.272551 -411.256406
2064.16633 -2262.272136 -411.258513
2064.166698 -2262.271895 -411.257994
2064.165636 -2262.272975 -411.257388
2064.165978 -2262.27266 -411.257399
2064.167373 -2262.271717 -411.255586
2064.166174 -2262.272707 -411.256159
2064.166464 -2262.272414 -411.256313
2064.167036 -2262.271855 -411.256521
2064.165977 -2262.272513 -411.258215
2064.166686 -2262.271821 -411.258458
2064.167687 -2262.271415 -411.258047
2064.167448 -2262.271831 -411.256959
2064.167065 -2262.272241 -411.256629
2064.165471 -2262.274018 -411.254855
2064.166125 -2262.273378 -411.255092
2064.166263 -2262.272885 -411.257112
2064.165108 -2262.273988 -411.256838
2064.164989 -2262.274168 -411.256993
2064.165535 -2262.27428 -411.255463
2064.16638 -2262.273601 -411.254963
2064.165428 -2262.274086 -411.257074
2064.164001 -2262.275258 -411.257783
2064.164651 -2262.274724 -411.257463
2064.165553 -2262.274196 -411.258217
2064.165173 -2262.274925 -411.25611
2064.166083 -2262.274019 -411.256532
2064.166034 -2262.273933 -411.257251
2064.166157 -2262.273986 -411.25634
2064.165866 -2262.274203 -411.256609
2064.16603 -2262.274265 -411.255443
2064.165157 -2262.274832 -411.256704
2064.165649 -2262.273966 -411.258999
2064.1656 -2262.274231 -411.257792
2064.166208 -2262.273788 -411.257177
2064.166119 -2262.274331 -411.254631
2064.164567 -2262.275424 -411.256408
2064.164993 -2262.274996 -411.256626
2064.165676 -2262.274367 -411.25666
2064.166257 -2262.27379 -411.256914
2064.165679 -2262.274427 -411.256315
2064.164002 -2262.275874 -411.256772
2064.163962 -2262.275685 -411.258014
2064.165467 -2262.27445 -411.257252
2064.16544 -2262.274417 -411.257568
2064.164896 -2262.274759 -411.258417
2064.165521 -2262.274432 -411.257079
2064.165606 -2262.274599 -411.25573
2064.166879 -2262.27351 -411.255334
2064.166351 -2262.27375 -411.256664
2064.165106 -2262.274923 -411.256462
2064.166057 -2262.273685 -411.256124
2064.165662 -2262.274035 -411.256175
2064.166083 -2262.273439 -411.257343
2064.16596 -2262.273854 -411.255677
2064.166828 -2262.273305 -411.254338
2064.165747 -2262.273968 -411.256121
2064.165503 -2262.274436 -411.254771
2064.165583 -2262.274197 -411.255683
2064.165457 -2262.274148 -411.256588
2064.16517 -2262.274644 -411.255298
2064.165164 -2262.274476 -411.256254
2064.166162 -2262.273669 -411.255681
2064.165576 -2262.274316 -411.25506
2064.165641 -2262.273816 -411.257487
2064.16519 -2262.274297 -411.257104
2064.165477 -2262.273854 -411.258101
2064.165111 -2262.274301 -411.25748
2064.165375 -2262.274247 -411.256454
2064.16538 -2262.274303 -411.25612
2064.165986 -2262.273763 -411.256043
2064.165131 -2262.274344 -411.257144
2064.165183 -2262.274479 -411.256141
2064.165288 -2262.274419 -411.255946
2064.165388 -2262.274433 -411.255365
2064.165577 -2262.274062 -411.256455
2064.164648 -2262.275053 -411.255666
2064.165127 -2262.274755 -411.254903
2064.165374 -2262.274682 -411.254063
2064.165456 -2262.274583 -411.254197
2064.164122 -2262.275641 -411.255072
2064.165359 -2262.274526 -411.255002
2064.163884 -2262.275673 -411.256092
2064.164155 -2262.275264 -411.256984
2064.163764 -2262.275591 -411.257145
2064.164355 -2262.27496 -411.25765
2064.164652 -2262.274716 -411.257504
2064.16509 -2262.27424 -411.257923
2064.164696 -2262.274897 -411.256284
2064.164328 -2262.275284 -411.256
2064.162968 -2262.276209 -411.257745
2064.163608 -2262.275899 -411.256238
2064.165193 -2262.274447 -411.256265
2064.163627 -2262.275908 -411.256088
2064.164202 -2262.275265 -411.256741
2064.165141 -2262.274318 -411.257236
2064.165173 -2262.274461 -411.256286
2064.165246 -2262.274044 -411.258215
2064.165616 -2262.274364 -411.2546
2064.165388 -2262.274288 -411.256161
2064.163881 -2262.275602 -411.2565
2064.164688 -2262.274881 -411.256413
2064.164917 -2262.274516 -411.257272
2064.16453 -2262.274775 -411.257786
2064.164674 -2262.274835 -411.256735
2064.165309 -2262.274026 -411.258001
2064.165222 -2262.274196 -411.257503
2064.164495 -2262.274874 -411.25742
2064.164863 -2262.27463 -411.256912
2064.165542 -2262.27401 -411.256916
2064.165706 -2262.273844 -411.257006
2064.164855 -2262.274677 -411.256696
2064.165543 -2262.274187 -411.255939
2064.166133 -2262.273099 -411.256583
2064.164848 -2262.274401 -411.255872
2064.165005 -2262.274185 -411.256275
2064.164385 -2262.274788 -411.25607
2064.164342 -2262.27466 -411.256987
2064.165621 -2262.273522 -411.256827
2064.16494 -2262.274282 -411.256067
2064.164406 -2262.274853 -411.255607
2064.164927 -2262.2741 -411.257133
2064.165322 -2262.273825 -411.256658
2064.165403 -2262.273667 -411.257128
2064.164441 -2262.274632 -411.256644
2064.164198 -2262.275066 -411.25548
2064.164547 -2262.274459 -411.257067
2064.164404 -2262.274584 -411.257093
2064.164424 -2262.27484 -411.257965
2064.164845 -2262.274598 -411.257179
2064.164248 -2262.27512 -411.257307
2064.165657 -2262.273869 -411.257113
2064.164121 -2262.27554 -411.255631
2064.164815 -2262.274896 -411.255697
2064.164649 -2262.27469 -411.257655
2064.163651 -2262.275989 -411.255522
2064.164987 -2262.274562 -411.256665
2064.164295 -2262.275262 -411.256286
2064.164175 -2262.275206 -411.257205
2064.164241 -2262.275412 -411.255735
2064.164535 -2262.275236 -411.255228
2064.163397 -2262.275952 -411.256999
2064.164129 -2262.275205 -411.257438
2064.163841 -2262.275703 -411.256142
2064.163473 -2262.276585 -411.255512
2064.163085 -2262.276525 -411.257793
2064.16299 -2262.276644 -411.257612
2064.163842 -2262.276134 -411.256143
2064.162642 -2262.277091 -411.2569
2064.162441 -2262.277192 -411.257355
2064.163504 -2262.276077 -411.258154
2064.163838 -2262.275784 -411.258091
2064.164692 -2262.275124 -411.25743
2064.163889 -2262.275838 -411.257535
2064.164286 -2262.275533 -411.257221
2064.164292 -2262.275625 -411.256683
2064.164302 -2262.275458 -411.257555
2064.16326 -2262.276563 -411.256707
2064.163917 -2262.275813 -411.256995
2064.163712 -2262.275658 -411.257035
2064.163046 -2262.276274 -411.256992
2064.164732 -2262.274963 -411.255741
2064.162826 -2262.276534 -411.256662
2064.164289 -2262.275095 -411.257241
2064.163832 -2262.275802 -411.255645
2064.163122 -2262.276314 -411.256389
2064.163595 -2262.275739 -411.257176
2064.164197 -2262.274949 -411.258503
2064.163306 -2262.275278 -411.258791
2064.164033 -2262.274715 -411.258234
2064.163514 -2262.275229 -411.258016
2064.162413 -2262.276122 -411.258627
2064.163718 -2262.274926 -411.258656
2064.16339 -2262.275386 -411.257776
2064.163202 -2262.275652 -411.257256
2064.164511 -2262.274602 -411.256454
2064.164084 -2262.274628 -411.258462
2064.164001 -2262.274267 -411.258486
2064.164442 -2262.273731 -411.259216
2064.16372 -2262.274609 -411.258015
2064.164206 -2262.274255 -411.257525
2064.16412 -2262.274361 -411.257372
2064.164706 -2262.274293 -411.254805
2064.164676 -2262.274146 -411.255762
2064.164603 -2262.27391 -411.257428
2064.16567 -2262.272862 -411.257837
2064.16423 -2262.274486 -411.256134
2064.164418 -2262.274059 -411.257533
2064.163937 -2262.274483 -411.257617
2064.161966 -2262.276453 -411.25667
2064.163183 -2262.275291 -411.256958
2064.16343 -2262.274898 -411.257882
2064.164557 -2262.273993 -411.257202
2064.163299 -2262.27567 -411.256664
2064.163459 -2262.275359 -411.257576
2064.164553 -2262.274467 -411.25699
2064.163909 -2262.27531 -411.255587
2064.163955 -2262.27531 -411.255359
2064.16459 -2262.27448 -411.256729
2064.164759 -2262.274421 -411.25621
2064.16445 -2262.274494 -411.257895
2064.163479 -2262.276346 -411.254422
2064.164072 -2262.275778 -411.254572
2064.164001 -2262.275448 -411.25674
2064.162888 -2262.276331 -411.257473
2064.164483 -2262.274921 -411.257222
2064.163887 -2262.275376 -411.258248
2064.162433 -2262.277322 -411.256683
2064.164214 -2262.275618 -411.257113
2064.162615 -2262.276947 -411.257829
2064.162391 -2262.276989 -411.258723
2064.162805 -2262.276746 -411.257984
2064.162672 -2262.276853 -411.258058
2064.163639 -2262.276203 -411.256783
2064.162794 -2262.276762 -411.257945
2064.164122 -2262.275458 -411.258456
2064.164067 -2262.275623 -411.257826
2064.163096 -2262.276602 -411.25731
2064.162215 -2262.27741 -411.257289
2064.162962 -2262.27677 -411.25706
2064.163254 -2262.276436 -411.257436
2064.162867 -2262.276959 -411.256497
2064.16351 -2262.276306 -411.256864
2064.163804 -2262.276049 -411.256806
2064.16421 -2262.275913 -411.255513
2064.163191 -2262.27675 -411.256022
2064.162866 -2262.276941 -411.256599
2064.164242 -2262.275855 -411.255674
2064.163591 -2262.276613 -411.254771
2064.163471 -2262.276495 -411.256016
2064.163278 -2262.275938 -411.257676
2064.163555 -2262.27555 -411.25842
2064.163079 -2262.276068 -411.257958
2064.161822 -2262.277075 -411.258729
2064.163201 -2262.275655 -411.259615
2064.163714 -2262.275257 -411.259231
2064.16377 -2262.275435 -411.257974
2064.163259 -2262.275911 -411.25792
2064.164038 -2262.27561 -411.255663
2064.163399 -2262.275197 -411.258767
2064.163336 -2262.275299 -411.258524
2064.164295 -2262.274397 -411.258668
2064.164992 -2262.273747 -411.258743
2064.164565 -2262.274394 -411.25733
2064.164121 -2262.274673 -411.258026
2064.163236 -2262.275634 -411.257182
2064.162625 -2262.276027 -411.258086
2064.162814 -2262.276234 -411.255998
2064.164558 -2262.274481 -411.256359
2064.163202 -2262.275448 -411.255994
2064.164182 -2262.274193 -411.25798
2064.162597 -2262.275921 -411.256431
2064.162523 -2262.276067 -411.256
2064.162367 -2262.275933 -411.25752
2064.16261 -2262.27596 -411.256153
2064.161596 -2262.276671 -411.257331
2064.163287 -2262.275165 -411.257129
2064.163811 -2262.27479 -411.256563
2064.163417 -2262.275151 -411.256553
2064.163747 -2262.274571 -411.25809
2064.163369 -2262.275097 -411.257094
2064.163696 -2262.27508 -411.255543
2064.163705 -2262.275066 -411.255575
2064.163603 -2262.274806 -411.257518
2064.162283 -2262.276093 -411.257058
2064.162214 -2262.276231 -411.256648
2064.163381 -2262.275224 -411.256333
2064.163332 -2262.27505 -411.257535
2064.162822 -2262.27575 -411.256771
2064.162954 -2262.27591 -411.257079
2064.16242 -2262.276414 -411.256984
2064.162132 -2262.27686 -411.255976
2064.161729 -2262.276608 -411.259387
2064.162565 -2262.276268 -411.257589
2064.163146 -2262.276226 -411.256757
2064.162893 -2262.276595 -411.255995
2064.163043 -2262.276286 -411.256942
2064.162847 -2262.276553 -411.256457
2064.163028 -2262.276342 -411.256708
2064.162992 -2262.276106 -411.258186
2064.162668 -2262.276531 -411.257476
2064.163988 -2262.27512 -411.258608
2064.163221 -2262.276113 -411.257002
2064.162217 -2262.277012 -411.257094
2064.161503 -2262.277614 -411.257368
2064.163445 -2262.275659 -411.258371
2064.164401 -2262.275029 -411.257039
2064.162959 -2262.276379 -411.256846
2064.163072 -2262.27658 -411.255177
2064.162314 -2262.277065 -411.256311
2064.162293 -2262.276975 -411.256912
2064.162899 -2262.276352 -411.257299
2064.1634 -2262.275854 -411.257524
2064.164294 -2262.274821 -411.25872
2064.16324 -2262.275816 -411.258539
2064.163794 -2262.275533 -411.25731
2064.164072 -2262.27531 -411.257143
2064.162994 -2262.276354 -411.256814
2064.163322 -2262.275745 -411.258512
2064.163333 -2262.275585 -411.259341
2064.162902 -2262.276358 -411.257251
2064.16266 -2262.276735 -411.25639
2064.164789 -2262.275051 -411.25497
2064.164806 -2262.275201 -411.254061
2064.16372 -2262.275733 -411.256583
2064.16356 -2262.275721 -411.257453
2064.163167 -2262.275775 -411.256752
2064.163652 -2262.275448 -411.256116
2064.162484 -2262.276398 -411.256748
2064.163685 -2262.275224 -411.257182
2064.162548 -2262.276199 -411.257526
2064.162026 -2262.276892 -411.256336
2064.162908 -2262.275969 -411.256988
2064.162364 -2262.27625 -411.258166
2064.162098 -2262.276568 -411.257751
2064.162546 -2262.275991 -411.258682
2064.163758 -2262.275477 -411.257801
2064.163385 -2262.275952 -411.257062
2064.163098 -2262.27611 -411.257633
2064.162307 -2262.276804 -411.257785
2064.162918 -2262.275919 -411.259587
2064.16264 -2262.276375 -411.258472
2064.163372 -2262.2758 -411.257962
2064.163392 -2262.275842 -411.257632
2064.162975 -2262.2762 -411.257755
2064.162884 -2262.276397 -411.257128
2064.16311 -2262.276254 -411.256783
2064.162701 -2262.276855 -411.255531
2064.163215 -2262.276496 -411.254923
2064.161938 -2262.277405 -411.25633
2064.16256 -2262.276827 -411.25639
2064.162937 -2262.276513 -411.256225
2064.162665 -2262.276784 -411.2561
2064.163102 -2262.276254 -411.256819
2064.161986 -2262.277529 -411.25541
2064.162364 -2262.277145 -411.255624
2064.161359 -2262.278161 -411.255077
2064.161047 -2262.278041 -411.257303
2064.161637 -2262.277418 -411.25777
2064.162872 -2262.276168 -411.258448
2064.163827 -2262.275663 -411.256434
2064.162251 -2262.277141 -411.256212
2064.163316 -2262.276044 -411.2569
2064.16181 -2262.277414 -411.256926
2064.162251 -2262.277141 -411.256212
2064.162461 -2262.276883 -411.25658
2064.162705 -2262.276528 -411.257307
2064.163476 -2262.275849 -411.257171
2064.163394 -2262.276214 -411.255575
2064.163107 -2262.276565 -411.255083
2064.162862 -2262.276602 -411.25611
2064.161831 -2262.277449 -411.256629
2064.161887 -2262.276827 -411.257388
2064.162897 -2262.276067 -411.2565
2064.162733 -2262.276269 -411.256213
2064.162868 -2262.275989 -411.257077
2064.163527 -2262.275156 -411.258353
2064.163146 -2262.275611 -411.257758
2064.16266 -2262.275996 -411.25808
2064.163108 -2262.275376 -411.25924
2064.163369 -2262.274995 -411.260026
2064.164293 -2262.274453 -411.258372
2064.163643 -2262.275166 -411.257715
2064.163035 -2262.275698 -411.257839
2064.164119 -2262.274908 -411.256741
2064.16431 -2262.27457 -411.257122
2064.164357 -2262.273839 -411.259053
2064.163499 -2262.274734 -411.258437
2064.163037 -2262.275385 -411.257176
2064.164026 -2262.274843 -411.255193
2064.164015 -2262.274858 -411.255162
2064.165046 -2262.273819 -411.255702
2064.163456 -2262.275138 -411.25643
2064.162721 -2262.275741 -411.256797
2064.164071 -2262.274659 -411.255975
2064.16458 -2262.274381 -411.254949
2064.163289 -2262.275453 -411.255533
2064.164057 -2262.274493 -411.256961
2064.162863 -2262.275644 -411.256624
2064.162972 -2262.275501 -411.25686
2064.163469 -2262.274588 -411.259389
2064.162537 -2262.276215 -411.257492
2064.163265 -2262.275592 -411.257265
2064.162464 -2262.276453 -411.256547
2064.163182 -2262.275748 -411.256821
2064.16444 -2262.274424 -411.257795
2064.164117 -2262.274648 -411.258183
2064.16418 -2262.275209 -411.257162
2064.163108 -2262.276216 -411.256999
2064.162837 -2262.276376 -411.257484
2064.163155 -2262.276424 -411.255624
2064.163407 -2262.276016 -411.256598
2064.163236 -2262.275631 -411.259577
2064.16264 -2262.276967 -411.257595
2064.162861 -2262.27736 -411.254325
2064.162741 -2262.277242 -411.255573
2064.162961 -2262.276882 -411.25645
2064.161943 -2262.277557 -411.257847
2064.163739 -2262.275887 -411.258539
2064.162175 -2262.278033 -411.256441
2064.162963 -2262.277165 -411.257259
2064.163009 -2262.277289 -411.256352
2064.162842 -2262.27734 -411.256906
2064.162505 -2262.277783 -411.256162
2064.162587 -2262.277835 -411.255465
2064.162597 -2262.277572 -411.256857
2064.161754 -2262.278165 -411.257831
2064.162106 -2262.27803 -411.256806
2064.162266 -2262.277834 -411.257078
2064.161788 -2262.278206 -411.257432
2064.162605 -2262.277679 -411.256229
2064.163239 -2262.277202 -411.255669
2064.162065 -2262.278205 -411.255527
2064.163062 -2262.276825 -411.256259
2064.163393 -2262.276755 -411.254977
2064.163629 -2262.276705 -411.25407
2064.163556 -2262.276832 -411.25374
2064.162065 -2262.277948 -411.255081
2064.162899 -2262.277218 -411.254912
2064.162583 -2262.277338 -411.255837
2064.162406 -2262.277585 -411.255366
2064.162171 -2262.277566 -411.256653
2064.163015 -2262.276236 -411.257353
2064.163227 -2262.276128 -411.256885
2064.161972 -2262.276825 -411.259352
2064.162752 -2262.276494 -411.257256
2064.16381 -2262.275673 -411.25646
2064.163558 -2262.275959 -411.256154
2064.163788 -2262.27522 -411.256689
2064.163717 -2262.275302 -411.256593
2064.163712 -2262.274962 -411.258489
2064.163609 -2262.27568 -411.255055
2064.163365 -2262.275278 -411.256117
2064.164108 -2262.274741 -411.255336
2064.163901 -2262.27483 -411.25589
2064.163581 -2262.275163 -411.255666
2064.163698 -2262.274967 -411.256152
2064.164262 -2262.274364 -411.256642
2064.164033 -2262.274403 -411.257575
2064.163142 -2262.275278 -411.257235
2064.162943 -2262.275437 -411.257355
2064.16329 -2262.275183 -411.257013
2064.164843 -2262.273389 -411.259092
2064.163394 -2262.274939 -411.257834
2064.163169 -2262.274987 -411.258699
2064.16455 -2262.27404 -411.256977
2064.164338 -2262.274301 -411.256607
2064.163684 -2262.274893 -411.256634
2064.164148 -2262.274475 -411.256606
2064.163607 -2262.275192 -411.255372
2064.162894 -2262.275738 -411.255948
2064.163129 -2262.275536 -411.255882
2064.162391 -2262.276019 -411.256928
2064.164904 -2262.273902 -411.255959
2064.163044 -2262.275692 -411.255447
2064.162731 -2262.275492 -411.258121
2064.16375 -2262.274719 -411.257258
2064.162857 -2262.27576 -411.256526
2064.163587 -2262.275881 -411.254057
2064.163474 -2262.275922 -411.254403
2064.162895 -2262.276449 -411.254413
2064.162552 -2262.276794 -411.25661
2064.163185 -2262.276265 -411.256347
2064.162207 -2262.277516 -411.25437
2064.163063 -2262.276168 -411.257488
2064.162496 -2262.276629 -411.257798
2064.162907 -2262.276307 -411.257509
2064.162738 -2262.276518 -411.257196
2064.162933 -2262.276855 -411.256739
2064.163073 -2262.276834 -411.256152
2064.163803 -2262.276208 -411.255929
2064.163024 -2262.277109 -411.254888
2064.162968 -2262.277024 -411.255634
2064.163229 -2262.276644 -411.256412
2064.163552 -2262.276307 -411.256649
2064.16323 -2262.276753 -411.25581
2064.163277 -2262.276793 -411.255357
2064.164243 -2262.275816 -411.255882
2064.1641 -2262.276065 -411.255231
2064.164112 -2262.276241 -411.254198
2064.163667 -2262.276314 -411.256035
2064.162317 -2262.277486 -411.256358
2064.163438 -2262.276478 -411.256276
2064.162452 -2262.277611 -411.254998
2064.163306 -2262.276776 -411.255302
2064.16297 -2262.276952 -411.256018
2064.163915 -2262.275912 -411.257
2064.164496 -2262.27531 -411.257399
2064.163768 -2262.276036 -411.257056
2064.164105 -2262.275751 -411.256929
2064.164189 -2262.27591 -411.255631
2064.164778 -2262.27552 -411.254823
2064.16428 -2262.275731 -411.255647
2064.164004 -2262.275155 -411.25834
2064.165012 -2262.274511 -411.256825
2064.165456 -2262.274439 -411.254991
2064.164831 -2262.274997 -411.255057
2064.164319 -2262.275531 -411.254688
2064.163662 -2262.276334 -411.25357
2064.16328 -2262.276588 -411.254094
2064.163442 -2262.276547 -411.253499
2064.163162 -2262.276494 -411.255202
2064.163734 -2262.275796 -411.256168
2064.164403 -2262.275128 -411.256483
2064.163855 -2262.275703 -411.256073
2064.164753 -2262.275023 -411.255305
2064.16343 -2262.276053 -411.256282
2064.162546 -2262.276917 -411.255962
2064.164525 -2262.274834 -411.257493
2064.163639 -2262.275418 -411.258724
2064.164407 -2262.275163 -411.256271
2064.163637 -2262.27592 -411.255973
2064.164724 -2262.275332 -411.25375
2064.163755 -2262.275958 -411.255171
2064.164593 -2262.274996 -411.256257
2064.16384 -2262.275852 -411.255329
2064.164657 -2262.274834 -411.256826
2064.163967 -2262.275725 -411.255388
2064.163942 -2262.276013 -411.25393
2064.164055 -2262.276088 -411.25295
2064.163353 -2262.276352 -411.255021
2064.163957 -2262.275673 -411.255723
2064.162858 -2262.27675 -411.255316
2064.163464 -2262.276069 -411.256024
2064.163779 -2262.275845 -411.255676
2064.16382 -2262.275611 -411.256751
2064.161793 -2262.277814 -411.254809
2064.163045 -2262.276819 -411.253999
2064.163039 -2262.276671 -411.254841
2064.16425 -2262.275567 -411.254841
2064.163222 -2262.27624 -411.256293
2064.163594 -2262.275708 -411.257352
2064.162733 -2262.276553 -411.257029
2064.1643 -2262.275355 -411.255749
2064.164375 -2262.275414 -411.255056
2064.16305 -2262.276613 -411.255108
2064.162722 -2262.276684 -411.25636
2064.163298 -2262.276366 -411.255224
2064.164122 -2262.275776 -411.254327
2064.16373 -2262.276273 -411.253567
2064.164102 -2262.275767 -411.254479
2064.163831 -2262.276119 -411.253902
2064.164605 -2262.275256 -411.25477
2064.163589 -2262.2762 -411.254675
2064.163708 -2262.276072 -411.254782
2064.16391 -2262.275903 -411.254692
2064.163577 -2262.276101 -411.255278
2064.164554 -2262.275212 -411.255264
2064.163787 -2262.275935 -411.255136
2064.164632 -2262.275117 -411.255397
2064.164221 -2262.275409 -411.25585
2064.164625 -2262.275193 -411.255011
2064.16446 -2262.27536 -411.254924
2064.16355 -2262.276143 -411.255182
2064.16371 -2262.275498 -411.255547
2064.164924 -2262.274451 -411.255212
2064.164579 -2262.27463 -411.255966
2064.165597 -2262.273784 -411.255504
2064.164139 -2262.275295 -411.254515
2064.164674 -2262.274588 -411.255714
2064.165263 -2262.274122 -411.255323
2064.164606 -2262.274693 -411.255479
2064.164778 -2262.274928 -411.253326
2064.164678 -2262.27499 -411.25349
2064.163851 -2262.275583 -411.254379
2064.164205 -2262.275325 -411.25402
2064.164032 -2262.275607 -411.253336
2064.16321 -2262.275885 -411.255933
2064.165025 -2262.274246 -411.255837
2064.163573 -2262.27576 -411.255302
2064.164476 -2262.275307 -411.255132
2064.164514 -2262.275474 -411.254025
2064.163718 -2262.27596 -411.255342
2064.165734 -2262.274219 -411.254803
2064.164671 -2262.275307 -411.254154
2064.16426 -2262.2756 -411.254608
2064.164325 -2262.275672 -411.25388
2064.162815 -2262.277092 -411.253651
2064.164118 -2262.275925 -411.253532
2064.164242 -2262.275328 -411.256196
2064.164137 -2262.276271 -411.253909
2064.165714 -2262.274708 -411.254592
2064.163513 -2262.276706 -411.254649
2064.163166 -2262.277307 -411.253089
2064.163528 -2262.276721 -411.25449
2064.164265 -2262.275733 -411.25623
2064.163602 -2262.276545 -411.255088
2064.164594 -2262.276032 -411.255307
2064.164299 -2262.276237 -411.25566
2064.163263 -2262.27753 -411.253749
2064.163752 -2262.276937 -411.254555
2064.164216 -2262.27652 -411.25452
2064.164263 -2262.2762 -411.256044
2064.163675 -2262.276764 -411.255894
2064.163795 -2262.276937 -411.254341
2064.164089 -2262.27678 -411.253728
2064.164618 -2262.276351 -411.253434
2064.164214 -2262.276815 -411.252909
2064.164837 -2262.276115 -411.25363
2064.165157 -2262.275067 -411.255415
2064.163813 -2262.276453 -411.254536
2064.164686 -2262.276012 -411.252579
2064.162556 -2262.277723 -411.253861
2064.163952 -2262.276553 -411.253287
2064.164368 -2262.275614 -411.253986
2064.163934 -2262.275759 -411.255369
2064.165077 -2262.274627 -411.255855
2064.163737 -2262.275972 -411.255183
2064.164905 -2262.275287 -411.253089
2064.164381 -2262.275885 -411.252428
2064.164265 -2262.275619 -411.254478
2064.164271 -2262.274776 -411.256702
2064.164594 -2262.274645 -411.255806
2064.163837 -2262.275278 -411.256124
2064.164061 -2262.275321 -411.254763
2064.165621 -2262.274217 -411.253004
2064.166297 -2262.273598 -411.253021
2064.164901 -2262.274101 -411.254879
2064.165589 -2262.273448 -411.255018
2064.166153 -2262.273117 -411.254011
2064.165687 -2262.273771 -411.252749
2064.165129 -2262.274131 -411.253567
2064.164635 -2262.27464 -411.253248
2064.165644 -2262.273613 -411.253839
2064.164934 -2262.274273 -411.253772
2064.165285 -2262.27371 -411.255099
2064.164404 -2262.274731 -411.253911
2064.165928 -2262.273122 -411.255109
2064.165853 -2262.273067 -411.255791
2064.166527 -2262.272855 -411.253575
2064.165886 -2262.272841 -411.256869
2064.16529 -2262.27346 -411.256453
2064.165838 -2262.273116 -411.255595
2064.165221 -2262.273923 -411.254253
2064.164277 -2262.274625 -411.255131
2064.164606 -2262.274435 -411.254523
2064.165408 -2262.273726 -411.254398
2064.164167 -2262.27509 -411.253126
2064.163717 -2262.275727 -411.25188
2064.165727 -2262.273482 -411.254136
2064.164171 -2262.274962 -411.253804
2064.165026 -2262.274128 -411.254101
2064.165043 -2262.27417 -411.253784
2064.165514 -2262.274372 -411.252691
2064.165114 -2262.274844 -411.252102
2064.165042 -2262.274778 -411.252828
2064.163942 -2262.275714 -411.253696
2064.164369 -2262.275903 -411.252389
2064.164213 -2262.275828 -411.253586
2064.164502 -2262.27545 -411.254213
2064.164588 -2262.275626 -411.255193
2064.165326 -2262.275195 -411.253862
2064.164513 -2262.276188 -411.252475
2064.164444 -2262.27591 -411.254354
2064.164498 -2262.275395 -411.257419
2064.164257 -2262.276323 -411.255399
2064.16472 -2262.275971 -411.255012
2064.164268 -2262.276806 -411.252688
2064.164348 -2262.276501 -411.253962
2064.165108 -2262.275988 -411.252969
2064.164025 -2262.276726 -411.254348
2064.164231 -2262.276432 -411.254931
2064.164051 -2262.27718 -411.251721
2064.163881 -2262.277013 -411.253494
2064.164433 -2262.276776 -411.252018
2064.164485 -2262.276578 -411.252853
2064.165104 -2262.276226 -411.251679
2064.164482 -2262.276455 -411.253545
2064.16483 -2262.276082 -411.253846
2064.16363 -2262.277221 -411.253601
2064.164049 -2262.276826 -411.253671
2064.164751 -2262.27618 -411.253707
2064.164528 -2262.276296 -411.254189
2064.163542 -2262.277217 -411.254071
2064.165056 -2262.275844 -411.254021
2064.165422 -2262.27521 -411.253299
2064.164817 -2262.275491 -411.254787
2064.1653 -2262.275105 -411.254487
2064.16567 -2262.275049 -411.252936
2064.166563 -2262.274262 -411.252786
2064.165862 -2262.274656 -411.251757
2064.16602 -2262.274281 -411.253028
2064.164191 -2262.275705 -411.254375
2064.165602 -2262.275055 -411.250867
2064.165663 -2262.274828 -411.251813
2064.166285 -2262.274174 -411.252286
2064.165191 -2262.27475 -411.252231
2064.165007 -2262.274758 -411.253111
2064.165726 -2262.274 -411.253673
2064.16556 -2262.274299 -411.252861
2064.165256 -2262.274402 -411.253821
2064.165234 -2262.274597 -411.25286
2064.16456 -2262.27504 -411.253808
2064.165566 -2262.274289 -411.252885
2064.165065 -2262.274312 -411.255276
2064.165337 -2262.274299 -411.253981
2064.164105 -2262.275215 -411.255123
2064.164947 -2262.274243 -411.256245
2064.164426 -2262.274969 -411.254865
2064.166073 -2262.27333 -411.255615
2064.165286 -2262.273922 -411.256308
2064.165905 -2262.27342 -411.255963
2064.165183 -2262.274104 -411.255826
2064.165399 -2262.27435 -411.253392
2064.164921 -2262.274956 -411.252455
2064.164613 -2262.275177 -411.252781
2064.166311 -2262.273526 -411.253344
2064.164721 -2262.274989 -411.253272
2064.164094 -2262.275662 -411.25272
2064.165003 -2262.274877 -411.252477
2064.164845 -2262.274694 -411.254277
2064.166245 -2262.273521 -411.253699
2064.164737 -2262.275096 -411.252605
2064.163525 -2262.276122 -411.253044
2064.164189 -2262.275421 -411.253569
2064.16386 -2262.275852 -411.25285
2064.165114 -2262.274586 -411.253517
2064.164767 -2262.274949 -411.253263
2064.165196 -2262.274397 -411.254151
2064.165919 -2262.27395 -411.252979
2064.163942 -2262.275958 -411.251853
2064.163823 -2262.275892 -411.252817
2064.165194 -2262.274328 -411.254538
2064.165022 -2262.274601 -411.253901
2064.164276 -2262.275244 -411.254108
2064.165047 -2262.27466 -411.253446
2064.164777 -2262.274783 -411.254128
2064.165763 -2262.274244 -411.254519
2064.165229 -2262.274984 -411.253134
2064.164861 -2262.275296 -411.25326
2064.164694 -2262.275477 -411.253103
2064.166424 -2262.274007 -411.25251
2064.165076 -2262.275434 -411.251424
2064.165952 -2262.274474 -411.252307
2064.165424 -2262.274833 -411.252985
2064.164452 -2262.275798 -411.252551
2064.165224 -2262.275122 -411.252395
2064.165897 -2262.274515 -411.252357
2064.165907 -2262.274211 -411.253979
2064.165951 -2262.274259 -411.253495
2064.165895 -2262.274431 -411.252835
2064.166137 -2262.273969 -411.254154
2064.165881 -2262.274564 -411.252168
2064.166339 -2262.27394 -411.253304
2064.165832 -2262.274098 -411.254979
2064.165421 -2262.275133 -411.251348
2064.165237 -2262.275525 -411.250114
2064.165969 -2262.274632 -411.251355
2064.165633 -2262.27483 -411.251946
2064.166134 -2262.274308 -411.252308
2064.165786 -2262.275005 -411.250223
2064.164492 -2262.276105 -411.250666
2064.16566 -2262.274949 -411.251164
2064.166392 -2262.274284 -411.251144
2064.16608 -2262.274644 -411.250731
2064.165639 -2262.274441 -411.254058
2064.165017 -2262.275255 -411.252705
2064.165156 -2262.274862 -411.254169
2064.165831 -2262.274304 -411.25385
2064.166285 -2262.274012 -411.253176
2064.165246 -2262.274636 -411.25496
2064.165411 -2262.274746 -411.253528
2064.165728 -2262.274541 -411.253065
2064.165416 -2262.274554 -411.254557
2064.167318 -2262.272794 -411.254692
2064.165904 -2262.274121 -411.254488
2064.166194 -2262.27413 -411.252986
2064.16658 -2262.273904 -411.252289
2064.166251 -2262.273981 -411.253519
2064.164477 -2262.2757 -411.252965
2064.16571 -2262.274307 -411.254439
2064.164256 -2262.275626 -411.254483
2064.165251 -2262.274999 -411.252935
2064.164286 -2262.276494 -411.251932
2064.165145 -2262.275656 -411.252233
2064.164586 -2262.276101 -411.252589
2064.164125 -2262.276294 -411.253843
2064.16447 -2262.276191 -411.252676
2064.165367 -2262.275359 -411.252753
2064.164698 -2262.276018 -411.252487
2064.165281 -2262.2752 -411.254056
2064.164139 -2262.276406 -411.25316
2064.165233 -2262.275338 -411.253539
2064.164995 -2262.275838 -411.251985
2064.164993 -2262.275841 -411.251976
2064.165875 -2262.275034 -411.251989
2064.16533 -2262.275642 -411.251382
2064.165115 -2262.275654 -411.251904
2064.165672 -2262.274678 -411.25259
2064.164994 -2262.275245 -411.25287
2064.165555 -2262.274902 -411.251943
2064.164568 -2262.275784 -411.252049
2064.165307 -2262.274989 -411.252711
2064.16556 -2262.274768 -411.252658
2064.166191 -2262.274562 -411.250626
2064.165732 -2262.274716 -411.252081
2064.166502 -2262.273747 -411.253544
2064.166199 -2262.273964 -411.253875
2064.165919 -2262.274459 -411.252555
2064.165701 -2262.274432 -411.253796
2064.165677 -2262.274833 -411.251717
2064.166545 -2262.273756 -411.252795
2064.165674 -2262.27385 -411.254761
2064.166575 -2262.273172 -411.253966
2064.165763 -2262.273875 -411.254174
2064.166074 -2262.273848 -411.252758
2064.166634 -2262.273602 -411.251308
2064.16574 -2262.274428 -411.251246
2064.165443 -2262.274037 -411.252513
2064.167 -2262.272667 -411.252231
2064.165993 -2262.273432 -411.253077
2064.165262 -2262.274783 -411.249314
2064.165287 -2262.274539 -411.250533
2064.166459 -2262.273496 -411.250391
2064.165721 -2262.273609 -411.253471
2064.165749 -2262.273803 -411.252262
2064.166736 -2262.272856 -411.252518
2064.166218 -2262.273141 -411.25355
2064.165113 -2262.274225 -411.253138
2064.16658 -2262.27287 -411.253224
2064.165618 -2262.273793 -411.25297
2064.165191 -2262.274288 -411.252393
2064.165781 -2262.274077 -411.250596
2064.164807 -2262.274737 -411.25185
2064.165914 -2262.273224 -411.254619
2064.165687 -2262.274462 -411.251324
2064.16623 -2262.273855 -411.251937
2064.165826 -2262.274132 -411.252444
2064.166099 -2262.273808 -411.252858
2064.166066 -2262.27418 -411.250972
2064.165899 -2262.274311 -411.251092
2064.165821 -2262.274107 -411.253096
2064.166479 -2262.274174 -411.251315
2064.165782 -2262.274789 -411.251428
2064.16664 -2262.273991 -411.251507
2064.165537 -2262.275041 -411.253649
2064.165874 -2262.274949 -411.252461
2064.164871 -2262.275696 -411.253389
2064.165389 -2262.275326 -411.253307
2064.165571 -2262.275626 -411.252639
2064.165125 -2262.275903 -411.25335
2064.165389 -2262.275741 -411.252916
2064.164949 -2262.276147 -411.252893
2064.165328 -2262.275838 -411.25269
2064.165825 -2262.27537 -411.252767
2064.165265 -2262.275968 -411.252295
2064.165436 -2262.275669 -411.253079
2064.164499 -2262.276642 -411.252431
2064.165494 -2262.275743 -411.252382
2064.165613 -2262.275918 -411.25082
2064.16519 -2262.276298 -411.250854
2064.165174 -2262.276324 -411.250787
2064.165167 -2262.276455 -411.250108
2064.165941 -2262.275666 -411.250561
2064.165346 -2262.276126 -411.251018
2064.165472 -2262.276075 -411.25066
2064.165711 -2262.275813 -411.250906
2064.165629 -2262.275881 -411.250944
2064.165648 -2262.275918 -411.250645
2064.164712 -2262.276687 -411.251109
2064.16522 -2262.2758 -411.253442
2064.164944 -2262.275807 -411.252409
2064.167019 -2262.273933 -411.252308
2064.164755 -2262.2756 -411.254497
2064.166089 -2262.274527 -411.253708
2064.165945 -2262.274971 -411.251985
2064.165692 -2262.275225 -411.251858
2064.166509 -2262.274008 -411.252073
2064.166381 -2262.273955 -411.253011
2064.165494 -2262.274907 -411.252222
2064.165176 -2262.275393 -411.251151
2064.165924 -2262.274151 -411.25185
2064.166113 -2262.273971 -411.251892
2064.167007 -2262.273142 -411.251961
2064.165425 -2262.274591 -411.251929
2064.166167 -2262.273876 -411.252139
2064.166812 -2262.272684 -411.253085
2064.166029 -2262.273321 -411.253511
2064.167333 -2262.272207 -411.253089
2064.166574 -2262.273098 -411.252
2064.166026 -2262.273348 -411.253379
2064.166718 -2262.272556 -411.254262
2064.167101 -2262.272246 -411.254039
2064.166337 -2262.273008 -411.253684
2064.167135 -2262.272036 -411.255024
2064.166629 -2262.272651 -411.254184
2064.166224 -2262.273317 -411.252551
2064.166399 -2262.273258 -411.251997
2064.165357 -2262.273962 -411.253358
2064.166246 -2262.272939 -411.25452
2064.165353 -2262.274109 -411.252568
2064.166549 -2262.273427 -411.250318
2064.166547 -2262.273159 -411.251802
2064.166123 -2262.273468 -411.252229
2064.166194 -2262.273382 -411.252346
2064.165972 -2262.273691 -411.25176
2064.166151 -2262.273526 -411.251769
2064.166413 -2262.273707 -411.249459
2064.164262 -2262.275434 -411.250753
2064.165463 -2262.274276 -411.251574
2064.165144 -2262.274821 -411.252073
2064.166754 -2262.2736 -411.250711
2064.165761 -2262.274123 -411.252821
2064.166943 -2262.2736 -411.252144
2064.165266 -2262.274984 -411.252944
2064.165242 -2262.275245 -411.251628
2064.165469 -2262.274473 -411.254737
2064.165827 -2262.274143 -411.254755
2064.165592 -2262.27464 -411.253203
2064.166418 -2262.273837 -411.253473
2064.165964 -2262.274582 -411.251653
2064.164654 -2262.275846 -411.251278
2064.166054 -2262.274539 -411.251439
2064.165008 -2262.275621 -411.250735
2064.164359 -2262.276307 -411.250221
2064.164772 -2262.275647 -411.251781
2064.164574 -2262.27586 -411.251604
2064.165888 -2262.274527 -411.252342
2064.16405 -2262.276235 -411.252171
2064.164797 -2262.275774 -411.25143
2064.165907 -2262.275167 -411.251099
2064.165848 -2262.275232 -411.251037
2064.165123 -2262.275912 -411.250938
2064.165031 -2262.27576 -411.252231
2064.165318 -2262.275616 -411.251581
2064.165662 -2262.275409 -411.250996
2064.166335 -2262.274565 -411.252258
2064.165369 -2262.275584 -411.251507
2064.166393 -2262.274808 -411.250634
2064.165696 -2262.275281 -411.251534
2064.165733 -2262.274935 -411.25325
